ply
        format ascii 1.0
        element vertex 69383
        property float x
        property float y
        property float z
        property uchar red
        property uchar green
        property uchar blue
        end_header
423.000000 -30.000000 -0.494422 30 30 30
130.000000 -31.000000 5.636412 255 243 230
131.000000 -31.000000 5.685853 255 243 230
132.000000 -31.000000 5.735296 255 242 230
133.000000 -31.000000 5.685853 255 240 230
134.000000 -31.000000 5.784738 255 240 230
135.000000 -31.000000 5.735296 255 240 230
136.000000 -31.000000 5.735296 253 238 226
137.000000 -31.000000 5.685853 250 235 223
138.000000 -31.000000 5.834180 247 234 223
139.000000 -31.000000 5.883623 245 232 221
140.000000 -31.000000 5.982507 242 230 217
141.000000 -31.000000 5.982507 237 225 209
142.000000 -31.000000 6.081391 239 228 211
143.000000 -31.000000 6.130834 237 225 209
144.000000 -31.000000 6.180276 237 223 209
145.000000 -31.000000 6.229718 233 220 209
146.000000 -31.000000 6.279160 233 217 206
147.000000 -31.000000 6.328602 230 212 201
148.000000 -31.000000 6.427487 228 211 198
149.000000 -31.000000 6.476929 224 206 190
150.000000 -31.000000 6.427487 222 204 186
151.000000 -31.000000 6.526371 221 202 185
152.000000 -31.000000 6.575813 220 200 183
153.000000 -31.000000 6.674698 218 200 185
154.000000 -31.000000 6.724140 216 198 183
155.000000 -31.000000 6.773582 217 195 182
156.000000 -31.000000 6.872467 216 194 182
157.000000 -31.000000 6.971351 215 192 181
158.000000 -31.000000 7.070235 215 191 177
159.000000 -31.000000 7.119678 214 191 177
160.000000 -31.000000 7.169120 211 191 174
161.000000 -31.000000 7.317446 210 192 174
162.000000 -31.000000 7.268004 207 190 175
163.000000 -31.000000 7.317446 206 188 171
164.000000 -31.000000 7.515215 202 186 168
165.000000 -31.000000 7.169120 201 188 170
166.000000 -31.000000 7.119678 201 188 170
167.000000 -31.000000 7.317446 200 184 167
168.000000 -31.000000 7.218562 200 182 164
169.000000 -31.000000 7.169120 199 180 162
170.000000 -31.000000 7.366889 198 178 162
171.000000 -31.000000 7.910753 200 181 163
172.000000 -31.000000 8.009637 201 181 164
173.000000 -31.000000 7.910753 198 179 161
174.000000 -31.000000 7.960195 198 180 162
175.000000 -31.000000 8.009637 193 177 161
176.000000 -31.000000 8.108521 192 180 163
177.000000 -31.000000 8.355733 192 180 163
178.000000 -31.000000 8.306291 191 179 162
179.000000 -31.000000 8.454618 191 179 162
180.000000 -31.000000 8.454618 190 178 161
181.000000 -31.000000 8.454618 191 178 160
182.000000 -31.000000 8.899597 191 178 160
183.000000 -31.000000 8.998482 189 176 157
184.000000 -31.000000 8.899597 189 176 157
185.000000 -31.000000 8.602943 189 173 157
186.000000 -31.000000 8.602943 191 175 158
187.000000 -31.000000 8.306291 190 174 156
188.000000 -31.000000 7.465773 189 173 155
189.000000 -31.000000 6.971351 187 171 154
190.000000 -31.000000 7.861310 187 169 151
191.000000 -31.000000 7.762426 187 168 150
192.000000 -31.000000 7.218562 189 169 151
193.000000 -31.000000 7.861310 187 169 148
194.000000 -31.000000 6.328602 184 166 145
195.000000 -31.000000 14.189913 186 168 148
196.000000 -31.000000 15.623737 185 166 145
197.000000 -31.000000 15.969832 181 162 141
198.000000 -31.000000 16.662024 181 163 142
199.000000 -31.000000 17.205887 182 163 142
200.000000 -31.000000 17.996964 179 164 139
201.000000 -31.000000 18.441942 179 164 141
202.000000 -31.000000 19.134134 179 166 143
203.000000 -31.000000 19.925209 179 167 143
204.000000 -31.000000 20.271305 176 163 138
205.000000 -31.000000 21.012938 177 162 139
206.000000 -31.000000 21.804012 180 163 143
207.000000 -31.000000 22.298435 182 164 146
208.000000 -31.000000 22.792856 178 160 139
209.000000 -31.000000 23.287279 180 160 140
210.000000 -31.000000 23.979469 178 158 141
211.000000 -31.000000 24.572777 179 161 143
212.000000 -31.000000 25.264967 175 163 142
213.000000 -31.000000 25.709948 175 164 141
214.000000 -31.000000 26.204369 174 165 142
215.000000 -31.000000 26.501022 171 163 139
216.000000 -31.000000 26.847118 173 160 139
217.000000 -31.000000 27.292097 172 159 136
218.000000 -31.000000 27.835962 175 159 131
219.000000 -31.000000 28.182056 175 159 129
220.000000 -31.000000 28.330383 171 160 126
221.000000 -31.000000 28.923691 172 160 129
222.000000 -31.000000 29.022575 172 161 130
223.000000 -31.000000 29.368670 172 159 130
224.000000 -31.000000 29.516996 172 157 133
225.000000 -31.000000 30.060862 172 155 133
226.000000 -31.000000 30.456398 174 157 133
227.000000 -31.000000 30.308071 173 155 129
228.000000 -31.000000 30.456398 173 159 128
229.000000 -31.000000 30.851936 173 161 129
230.000000 -31.000000 30.604725 173 158 129
231.000000 -31.000000 30.654167 172 157 129
232.000000 -31.000000 30.753052 175 156 131
233.000000 -31.000000 30.802494 171 155 124
234.000000 -31.000000 30.753052 170 156 123
235.000000 -31.000000 30.802494 170 158 126
236.000000 -31.000000 30.406956 166 152 121
237.000000 -31.000000 30.456398 169 153 123
238.000000 -31.000000 30.011419 171 154 124
239.000000 -31.000000 29.665323 169 152 123
240.000000 -31.000000 29.170900 165 152 123
241.000000 -31.000000 29.220343 163 152 125
242.000000 -31.000000 28.775364 165 153 121
243.000000 -31.000000 27.044886 166 152 121
244.000000 -31.000000 27.489866 168 152 121
245.000000 -31.000000 28.182056 168 151 119
246.000000 -31.000000 27.737078 169 150 117
247.000000 -31.000000 28.132614 169 151 115
248.000000 -31.000000 27.440424 165 145 115
249.000000 -31.000000 26.847118 168 151 121
250.000000 -31.000000 26.303253 168 151 123
251.000000 -31.000000 26.402138 168 150 120
252.000000 -31.000000 25.116640 164 152 115
253.000000 -31.000000 24.177238 163 150 115
254.000000 -31.000000 24.325565 161 148 113
255.000000 -31.000000 24.127796 161 149 118
256.000000 -31.000000 23.880585 161 151 119
257.000000 -31.000000 22.644529 160 154 121
258.000000 -31.000000 22.595087 161 154 121
259.000000 -31.000000 22.051224 163 151 120
260.000000 -31.000000 20.469072 161 149 116
261.000000 -31.000000 20.122978 164 148 118
262.000000 -31.000000 19.430786 166 146 117
263.000000 -31.000000 13.299953 166 148 118
264.000000 -31.000000 9.937883 165 150 122
265.000000 -31.000000 10.679517 163 152 122
266.000000 -31.000000 10.531190 161 150 120
267.000000 -31.000000 10.481748 164 147 118
268.000000 -31.000000 10.283978 159 146 115
269.000000 -31.000000 10.926727 155 148 116
270.000000 -31.000000 10.432305 150 142 114
271.000000 -31.000000 10.531190 146 138 112
272.000000 -31.000000 10.778400 139 128 103
273.000000 -31.000000 16.068716 122 113 87
274.000000 -31.000000 18.194731 113 105 78
275.000000 -31.000000 45.536270 85 81 49
276.000000 -31.000000 45.585712 76 74 38
277.000000 -31.000000 45.486828 67 71 32
278.000000 -31.000000 45.239616 66 70 36
279.000000 -31.000000 45.140732 63 65 39
280.000000 -31.000000 45.091293 56 58 39
281.000000 -31.000000 44.794640 56 58 43
282.000000 -31.000000 44.794640 46 49 28
283.000000 -31.000000 44.646313 51 51 38
284.000000 -31.000000 44.448544 51 51 41
285.000000 -31.000000 44.201332 50 50 40
286.000000 -31.000000 44.151890 48 48 34
287.000000 -31.000000 43.954121 47 47 35
288.000000 -31.000000 43.904678 47 47 35
289.000000 -31.000000 43.014717 46 49 30
290.000000 -31.000000 43.509140 45 48 29
291.000000 -31.000000 43.014717 46 49 30
292.000000 -31.000000 42.075317 48 51 34
293.000000 -31.000000 41.630337 50 53 36
294.000000 -31.000000 39.850418 52 55 39
295.000000 -31.000000 38.713245 51 54 38
296.000000 -31.000000 40.443726 55 55 44
297.000000 -31.000000 41.135914 54 54 44
298.000000 -31.000000 41.086472 53 53 48
299.000000 -31.000000 39.899860 54 54 51
300.000000 -31.000000 40.987587 51 51 51
301.000000 -31.000000 40.839260 46 46 49
302.000000 -31.000000 41.531452 48 48 48
303.000000 -31.000000 41.383125 47 47 47
304.000000 -31.000000 41.630337 46 46 46
305.000000 -31.000000 40.592052 45 45 45
306.000000 -31.000000 41.185356 45 45 45
307.000000 -31.000000 41.037029 45 45 45
308.000000 -31.000000 40.839260 44 44 44
309.000000 -31.000000 39.355995 41 41 41
310.000000 -31.000000 38.564919 42 42 42
311.000000 -31.000000 38.169384 43 43 43
312.000000 -31.000000 38.169384 43 43 43
313.000000 -31.000000 37.576077 39 39 45
314.000000 -31.000000 39.504322 43 43 46
315.000000 -31.000000 40.196514 47 47 44
316.000000 -31.000000 40.592052 46 46 31
317.000000 -31.000000 40.789818 45 48 29
318.000000 -31.000000 41.086472 47 47 33
319.000000 -31.000000 41.037029 50 50 40
320.000000 -31.000000 41.383125 47 47 41
321.000000 -31.000000 41.383125 47 47 44
322.000000 -31.000000 41.185356 48 48 48
323.000000 -31.000000 41.432568 51 51 51
324.000000 -31.000000 41.432568 48 48 48
325.000000 -31.000000 41.383125 48 48 48
326.000000 -31.000000 41.482010 51 51 51
327.000000 -31.000000 41.482010 49 56 49
328.000000 -31.000000 41.432568 47 56 49
329.000000 -31.000000 41.482010 50 57 46
330.000000 -31.000000 41.432568 56 58 43
331.000000 -31.000000 41.531452 58 60 48
332.000000 -31.000000 41.432568 57 62 44
333.000000 -31.000000 41.432568 59 64 48
334.000000 -31.000000 41.383125 63 65 50
335.000000 -31.000000 41.234798 71 73 59
336.000000 -31.000000 41.185356 93 95 83
337.000000 -31.000000 36.982769 124 130 110
338.000000 -31.000000 36.043369 109 111 91
339.000000 -31.000000 35.252293 134 137 119
340.000000 -31.000000 38.268269 92 95 77
341.000000 -31.000000 39.998745 69 73 57
342.000000 -31.000000 35.450062 112 118 116
343.000000 -31.000000 34.411774 144 150 144
344.000000 -31.000000 35.548946 122 126 115
345.000000 -31.000000 37.922173 100 102 83
346.000000 -31.000000 38.021057 111 109 86
347.000000 -31.000000 26.056042 139 139 116
348.000000 -31.000000 0.543864 166 169 145
349.000000 -31.000000 1.285497 171 174 150
350.000000 -31.000000 0.543864 170 173 149
351.000000 -31.000000 1.137171 226 229 207
352.000000 -31.000000 1.137171 228 226 207
353.000000 -31.000000 1.137171 226 224 205
354.000000 -31.000000 1.038286 221 223 203
355.000000 -31.000000 1.186613 234 236 222
356.000000 -31.000000 1.236055 236 239 227
357.000000 -31.000000 1.285497 244 246 234
358.000000 -31.000000 1.334940 253 255 244
359.000000 -31.000000 1.433824 253 255 244
360.000000 -31.000000 1.483266 254 255 245
361.000000 -31.000000 1.483266 253 255 246
362.000000 -31.000000 1.532708 253 255 247
363.000000 -31.000000 1.532708 252 255 246
364.000000 -31.000000 1.532708 250 255 245
365.000000 -31.000000 1.483266 249 255 246
366.000000 -31.000000 1.483266 247 255 246
367.000000 -31.000000 1.532708 246 255 246
368.000000 -31.000000 1.532708 247 255 245
369.000000 -31.000000 1.532708 251 255 251
370.000000 -31.000000 1.532708 251 255 253
371.000000 -31.000000 1.532708 251 255 252
372.000000 -31.000000 1.532708 247 255 246
373.000000 -31.000000 1.532708 247 255 246
374.000000 -31.000000 1.532708 247 255 250
375.000000 -31.000000 1.532708 249 255 254
376.000000 -31.000000 1.532708 250 255 252
377.000000 -31.000000 1.532708 250 255 252
378.000000 -31.000000 1.532708 251 255 254
379.000000 -31.000000 1.532708 251 255 254
380.000000 -31.000000 1.532708 249 255 254
381.000000 -31.000000 1.532708 249 255 254
382.000000 -31.000000 1.532708 250 255 254
383.000000 -31.000000 1.582151 251 255 254
384.000000 -31.000000 1.532708 251 255 254
385.000000 -31.000000 1.532708 249 255 254
386.000000 -31.000000 1.532708 249 255 254
387.000000 -31.000000 1.532708 251 255 254
388.000000 -31.000000 1.483266 254 255 255
389.000000 -31.000000 1.532708 255 255 252
390.000000 -31.000000 1.631593 240 242 235
391.000000 -31.000000 19.579113 169 171 152
392.000000 -31.000000 13.695491 144 144 116
393.000000 -31.000000 13.646049 150 150 117
394.000000 -31.000000 13.547164 146 148 110
395.000000 -31.000000 13.497722 143 147 107
396.000000 -31.000000 13.398838 144 146 109
397.000000 -31.000000 13.398838 146 146 110
398.000000 -31.000000 13.250511 145 143 110
399.000000 -31.000000 13.299953 146 144 112
400.000000 -31.000000 13.250511 147 144 111
401.000000 -31.000000 13.250511 145 139 106
402.000000 -31.000000 13.201069 142 137 97
403.000000 -31.000000 13.151627 138 134 90
404.000000 -31.000000 13.151627 137 133 89
405.000000 -31.000000 13.102184 133 129 85
406.000000 -31.000000 12.756089 134 125 83
407.000000 -31.000000 12.360552 135 114 74
408.000000 -31.000000 10.283978 133 102 63
409.000000 -31.000000 8.899597 115 75 29
410.000000 -31.000000 8.553501 116 73 24
411.000000 -31.000000 8.504060 113 70 21
412.000000 -31.000000 8.355733 111 68 19
413.000000 -31.000000 8.306291 112 66 21
414.000000 -31.000000 8.207406 110 65 20
415.000000 -31.000000 7.910753 113 64 21
416.000000 -31.000000 8.157964 114 66 25
417.000000 -31.000000 7.910753 109 64 19
418.000000 -31.000000 7.861310 106 62 18
419.000000 -31.000000 7.762426 108 72 30
420.000000 -31.000000 6.872467 110 81 44
421.000000 -31.000000 3.263186 132 110 76
422.000000 -31.000000 -0.494422 31 31 31
423.000000 -31.000000 -0.494422 30 30 30
130.000000 -32.000000 5.735296 251 238 228
131.000000 -32.000000 5.735296 252 239 229
132.000000 -32.000000 5.834180 252 239 229
133.000000 -32.000000 5.685853 254 241 231
134.000000 -32.000000 5.784738 255 242 232
135.000000 -32.000000 5.735296 255 243 231
136.000000 -32.000000 5.735296 254 242 229
137.000000 -32.000000 5.735296 251 239 226
138.000000 -32.000000 5.834180 247 234 223
139.000000 -32.000000 5.933064 244 231 221
140.000000 -32.000000 5.982507 242 230 218
141.000000 -32.000000 6.031949 240 228 214
142.000000 -32.000000 6.130834 238 226 212
143.000000 -32.000000 6.180276 236 224 208
144.000000 -32.000000 6.229718 235 223 210
145.000000 -32.000000 6.229718 234 222 208
146.000000 -32.000000 6.328602 233 220 210
147.000000 -32.000000 6.378045 230 217 207
148.000000 -32.000000 6.476929 230 211 202
149.000000 -32.000000 6.476929 226 208 196
150.000000 -32.000000 6.476929 225 208 195
151.000000 -32.000000 6.625256 223 205 190
152.000000 -32.000000 6.674698 222 204 187
153.000000 -32.000000 6.724140 221 202 185
154.000000 -32.000000 6.773582 218 198 182
155.000000 -32.000000 6.823024 216 197 180
156.000000 -32.000000 6.921909 216 198 181
157.000000 -32.000000 7.020793 215 197 180
158.000000 -32.000000 7.070235 212 194 179
159.000000 -32.000000 7.119678 212 191 177
160.000000 -32.000000 7.218562 212 190 174
161.000000 -32.000000 7.366889 210 189 172
162.000000 -32.000000 7.268004 209 187 171
163.000000 -32.000000 7.366889 208 190 172
164.000000 -32.000000 7.515215 202 186 168
165.000000 -32.000000 7.218562 200 189 170
166.000000 -32.000000 7.169120 199 188 169
167.000000 -32.000000 7.465773 195 182 164
168.000000 -32.000000 7.317446 199 182 164
169.000000 -32.000000 7.317446 201 183 165
170.000000 -32.000000 7.564658 201 183 165
171.000000 -32.000000 7.960195 201 183 165
172.000000 -32.000000 8.059079 200 182 164
173.000000 -32.000000 7.960195 195 182 164
174.000000 -32.000000 8.009637 194 180 163
175.000000 -32.000000 8.157964 194 180 163
176.000000 -32.000000 8.157964 192 180 163
177.000000 -32.000000 8.405175 192 180 163
178.000000 -32.000000 8.405175 192 180 163
179.000000 -32.000000 8.553501 192 180 163
180.000000 -32.000000 8.504060 190 177 159
181.000000 -32.000000 8.553501 190 177 159
182.000000 -32.000000 9.097365 188 175 157
183.000000 -32.000000 9.097365 190 177 159
184.000000 -32.000000 8.998482 190 178 161
185.000000 -32.000000 8.800713 190 174 161
186.000000 -32.000000 8.751270 190 174 159
187.000000 -32.000000 8.405175 189 173 155
188.000000 -32.000000 7.663542 192 174 156
189.000000 -32.000000 7.218562 191 173 155
190.000000 -32.000000 8.009637 188 170 152
191.000000 -32.000000 8.256848 190 172 154
192.000000 -32.000000 7.910753 192 174 156
193.000000 -32.000000 8.108521 189 171 151
194.000000 -32.000000 6.823024 188 170 149
195.000000 -32.000000 14.239355 186 167 148
196.000000 -32.000000 15.722621 187 168 150
197.000000 -32.000000 16.365370 187 168 150
198.000000 -32.000000 16.859793 186 168 148
199.000000 -32.000000 17.255329 182 163 142
200.000000 -32.000000 18.046406 180 166 141
201.000000 -32.000000 18.491385 179 164 141
202.000000 -32.000000 19.183577 181 168 146
203.000000 -32.000000 19.974651 184 168 151
204.000000 -32.000000 20.419630 182 167 146
205.000000 -32.000000 21.111822 179 164 141
206.000000 -32.000000 21.853455 180 165 142
207.000000 -32.000000 22.397320 177 164 142
208.000000 -32.000000 22.891741 177 165 142
209.000000 -32.000000 23.336721 179 163 140
210.000000 -32.000000 24.127796 180 160 139
211.000000 -32.000000 24.622219 179 159 139
212.000000 -32.000000 25.314409 179 160 140
213.000000 -32.000000 25.759390 174 163 139
214.000000 -32.000000 26.253811 172 164 140
215.000000 -32.000000 26.550465 173 165 141
216.000000 -32.000000 26.946003 175 163 139
217.000000 -32.000000 27.440424 176 162 140
218.000000 -32.000000 27.934847 179 160 139
219.000000 -32.000000 28.182056 174 159 134
220.000000 -32.000000 28.379826 172 161 132
221.000000 -32.000000 28.973133 173 162 137
222.000000 -32.000000 29.121460 175 162 137
223.000000 -32.000000 29.566439 177 162 137
224.000000 -32.000000 29.714766 175 160 138
225.000000 -32.000000 30.258631 174 158 139
226.000000 -32.000000 30.555283 171 155 133
227.000000 -32.000000 30.456398 174 159 134
228.000000 -32.000000 30.505840 172 161 132
229.000000 -32.000000 30.950821 173 161 131
230.000000 -32.000000 30.802494 173 163 134
231.000000 -32.000000 30.753052 168 161 133
232.000000 -32.000000 30.851936 171 158 132
233.000000 -32.000000 30.901379 171 156 128
234.000000 -32.000000 30.851936 170 155 125
235.000000 -32.000000 31.049706 169 155 125
236.000000 -32.000000 30.703609 167 156 127
237.000000 -32.000000 30.604725 168 157 131
238.000000 -32.000000 30.456398 171 160 130
239.000000 -32.000000 30.060862 172 157 127
240.000000 -32.000000 29.566439 170 155 125
241.000000 -32.000000 29.368670 168 152 126
242.000000 -32.000000 28.923691 168 153 123
243.000000 -32.000000 27.143770 167 151 121
244.000000 -32.000000 27.539309 167 152 124
245.000000 -32.000000 28.330383 167 151 121
246.000000 -32.000000 27.835962 168 151 117
247.000000 -32.000000 28.280941 168 151 117
248.000000 -32.000000 27.786520 167 149 119
249.000000 -32.000000 26.995443 166 149 121
250.000000 -32.000000 26.451580 166 151 121
251.000000 -32.000000 26.649349 164 151 116
252.000000 -32.000000 25.363852 162 150 114
253.000000 -32.000000 24.375008 165 151 115
254.000000 -32.000000 25.017756 166 152 115
255.000000 -32.000000 24.375008 164 153 118
256.000000 -32.000000 24.226681 163 154 118
257.000000 -32.000000 22.792856 162 155 121
258.000000 -32.000000 22.693972 162 152 120
259.000000 -32.000000 22.199551 161 151 119
260.000000 -32.000000 20.864611 165 153 122
261.000000 -32.000000 20.172421 162 150 118
262.000000 -32.000000 19.480228 163 149 117
263.000000 -32.000000 13.398838 163 151 118
264.000000 -32.000000 10.036768 163 152 122
265.000000 -32.000000 10.827843 162 149 120
266.000000 -32.000000 10.580632 161 147 119
267.000000 -32.000000 10.679517 157 147 115
268.000000 -32.000000 10.333421 155 148 115
269.000000 -32.000000 11.025612 151 146 114
270.000000 -32.000000 10.531190 145 137 110
271.000000 -32.000000 11.173939 137 126 104
272.000000 -32.000000 13.744933 122 114 88
273.000000 -32.000000 16.167601 113 104 81
274.000000 -32.000000 45.387943 83 78 53
275.000000 -32.000000 45.635155 73 73 42
276.000000 -32.000000 45.585712 69 73 40
277.000000 -32.000000 45.486828 67 71 39
278.000000 -32.000000 45.289059 61 63 38
279.000000 -32.000000 45.239616 57 57 42
280.000000 -32.000000 45.140732 50 50 42
281.000000 -32.000000 44.942966 49 49 41
282.000000 -32.000000 44.794640 48 48 34
283.000000 -32.000000 44.646313 48 48 45
284.000000 -32.000000 44.448544 50 50 47
285.000000 -32.000000 44.250774 48 48 48
286.000000 -32.000000 44.201332 46 46 34
287.000000 -32.000000 44.003563 43 46 25
288.000000 -32.000000 43.904678 45 45 33
289.000000 -32.000000 43.064159 47 47 38
290.000000 -32.000000 43.558582 48 48 42
291.000000 -32.000000 43.014717 48 48 37
292.000000 -32.000000 42.322529 53 56 40
293.000000 -32.000000 41.729221 52 55 39
294.000000 -32.000000 39.998745 53 53 39
295.000000 -32.000000 39.306553 47 50 37
296.000000 -32.000000 40.641495 51 51 48
297.000000 -32.000000 41.234798 53 53 50
298.000000 -32.000000 41.185356 52 52 52
299.000000 -32.000000 40.245956 50 50 47
300.000000 -32.000000 41.135914 49 49 49
301.000000 -32.000000 40.938145 42 42 48
302.000000 -32.000000 41.580894 43 43 49
303.000000 -32.000000 41.482010 44 44 44
304.000000 -32.000000 41.630337 45 45 45
305.000000 -32.000000 40.690937 46 46 46
306.000000 -32.000000 41.234798 48 48 48
307.000000 -32.000000 41.086472 44 44 44
308.000000 -32.000000 40.888702 44 44 44
309.000000 -32.000000 39.504322 42 42 42
310.000000 -32.000000 38.713245 41 41 41
311.000000 -32.000000 38.416595 45 45 45
312.000000 -32.000000 38.416595 45 45 45
313.000000 -32.000000 37.724403 40 40 46
314.000000 -32.000000 39.603207 45 45 45
315.000000 -32.000000 40.245956 46 46 43
316.000000 -32.000000 40.641495 47 47 35
317.000000 -32.000000 40.839260 43 46 25
318.000000 -32.000000 41.135914 46 46 31
319.000000 -32.000000 41.135914 46 46 37
320.000000 -32.000000 41.383125 47 47 47
321.000000 -32.000000 41.383125 47 47 47
322.000000 -32.000000 41.234798 49 49 49
323.000000 -32.000000 41.482010 48 48 48
324.000000 -32.000000 41.432568 47 47 47
325.000000 -32.000000 41.432568 51 51 51
326.000000 -32.000000 41.482010 53 53 53
327.000000 -32.000000 41.482010 48 53 53
328.000000 -32.000000 41.432568 45 56 51
329.000000 -32.000000 41.531452 40 54 51
330.000000 -32.000000 41.482010 42 52 49
331.000000 -32.000000 41.531452 46 55 48
332.000000 -32.000000 41.432568 50 61 43
333.000000 -32.000000 41.432568 52 60 45
334.000000 -32.000000 41.383125 54 59 50
335.000000 -32.000000 41.234798 64 64 60
336.000000 -32.000000 41.135914 61 59 53
337.000000 -32.000000 41.037029 68 70 57
338.000000 -32.000000 36.043369 106 109 97
339.000000 -32.000000 35.746716 114 116 105
340.000000 -32.000000 38.367153 86 86 78
341.000000 -32.000000 40.048187 68 68 68
342.000000 -32.000000 35.598389 102 107 102
343.000000 -32.000000 34.461216 129 131 133
344.000000 -32.000000 38.466038 98 100 103
345.000000 -32.000000 37.971615 103 106 98
346.000000 -32.000000 39.059341 93 96 81
347.000000 -32.000000 40.443726 95 97 76
348.000000 -32.000000 5.834180 142 144 124
349.000000 -32.000000 2.224899 157 160 136
350.000000 -32.000000 3.411512 145 148 124
351.000000 -32.000000 0.296653 202 205 184
352.000000 -32.000000 0.791075 208 208 188
353.000000 -32.000000 0.197769 194 197 176
354.000000 -32.000000 1.038286 219 222 203
355.000000 -32.000000 1.038286 219 221 207
356.000000 -32.000000 1.186613 229 231 219
357.000000 -32.000000 1.285497 246 248 236
358.000000 -32.000000 1.334940 253 255 244
359.000000 -32.000000 1.433824 253 255 246
360.000000 -32.000000 1.483266 253 255 247
361.000000 -32.000000 1.483266 253 255 246
362.000000 -32.000000 1.532708 254 255 245
363.000000 -32.000000 1.532708 253 255 246
364.000000 -32.000000 1.532708 253 255 246
365.000000 -32.000000 1.483266 251 255 247
366.000000 -32.000000 1.532708 249 255 246
367.000000 -32.000000 1.532708 249 255 245
368.000000 -32.000000 1.532708 247 255 246
369.000000 -32.000000 1.532708 248 255 248
370.000000 -32.000000 1.532708 251 255 250
371.000000 -32.000000 1.532708 251 255 250
372.000000 -32.000000 1.532708 247 255 246
373.000000 -32.000000 1.532708 250 255 248
374.000000 -32.000000 1.532708 249 255 246
375.000000 -32.000000 1.532708 249 255 247
376.000000 -32.000000 1.582151 251 255 252
377.000000 -32.000000 1.582151 251 255 254
378.000000 -32.000000 1.532708 251 255 254
379.000000 -32.000000 1.532708 249 255 254
380.000000 -32.000000 1.532708 247 255 253
381.000000 -32.000000 1.532708 247 255 253
382.000000 -32.000000 1.532708 249 255 254
383.000000 -32.000000 1.582151 249 255 254
384.000000 -32.000000 1.532708 251 255 254
385.000000 -32.000000 1.532708 251 255 254
386.000000 -32.000000 1.532708 251 255 254
387.000000 -32.000000 1.532708 253 255 255
388.000000 -32.000000 1.532708 255 255 255
389.000000 -32.000000 1.532708 255 255 255
390.000000 -32.000000 1.532708 253 253 248
391.000000 -32.000000 20.716284 199 199 185
392.000000 -32.000000 13.646049 153 151 129
393.000000 -32.000000 13.646049 152 152 121
394.000000 -32.000000 13.497722 147 151 114
395.000000 -32.000000 13.497722 145 149 110
396.000000 -32.000000 13.398838 144 147 114
397.000000 -32.000000 13.398838 147 147 117
398.000000 -32.000000 13.250511 144 144 116
399.000000 -32.000000 13.299953 144 144 113
400.000000 -32.000000 13.250511 148 141 110
401.000000 -32.000000 13.250511 147 140 105
402.000000 -32.000000 13.201069 144 137 98
403.000000 -32.000000 13.102184 143 134 94
404.000000 -32.000000 13.151627 138 129 88
405.000000 -32.000000 13.102184 140 131 88
406.000000 -32.000000 12.756089 140 127 85
407.000000 -32.000000 12.409993 141 115 77
408.000000 -32.000000 10.481748 125 87 50
409.000000 -32.000000 8.899597 119 74 35
410.000000 -32.000000 8.504060 117 70 30
411.000000 -32.000000 8.504060 112 69 21
412.000000 -32.000000 8.355733 111 66 21
413.000000 -32.000000 8.256848 111 66 21
414.000000 -32.000000 8.207406 111 66 21
415.000000 -32.000000 7.910753 111 63 21
416.000000 -32.000000 8.108521 109 63 22
417.000000 -32.000000 7.861310 114 66 23
418.000000 -32.000000 7.762426 114 65 22
419.000000 -32.000000 7.762426 113 66 26
420.000000 -32.000000 6.872467 116 82 38
421.000000 -32.000000 3.263186 138 111 71
422.000000 -32.000000 -0.494422 31 31 0
423.000000 -32.000000 -0.494422 30 30 30
130.000000 -33.000000 5.883623 247 228 221
131.000000 -33.000000 5.982507 247 228 220
132.000000 -33.000000 5.982507 249 230 223
133.000000 -33.000000 5.933064 246 233 224
134.000000 -33.000000 5.933064 249 237 226
135.000000 -33.000000 5.933064 250 237 226
136.000000 -33.000000 5.982507 246 234 220
137.000000 -33.000000 6.081391 242 230 217
138.000000 -33.000000 6.031949 240 227 217
139.000000 -33.000000 6.081391 237 224 213
140.000000 -33.000000 6.130834 237 224 213
141.000000 -33.000000 6.229718 234 221 212
142.000000 -33.000000 6.328602 232 219 211
143.000000 -33.000000 6.229718 232 221 207
144.000000 -33.000000 6.328602 229 218 204
145.000000 -33.000000 6.328602 229 218 204
146.000000 -33.000000 6.378045 228 217 206
147.000000 -33.000000 6.427487 228 217 206
148.000000 -33.000000 6.526371 227 209 200
149.000000 -33.000000 6.526371 224 205 195
150.000000 -33.000000 6.526371 223 206 193
151.000000 -33.000000 6.625256 223 205 190
152.000000 -33.000000 6.674698 222 204 187
153.000000 -33.000000 6.823024 222 206 195
154.000000 -33.000000 6.921909 221 205 193
155.000000 -33.000000 6.971351 220 201 189
156.000000 -33.000000 7.020793 220 202 189
157.000000 -33.000000 7.119678 219 201 188
158.000000 -33.000000 7.169120 216 198 184
159.000000 -33.000000 7.169120 213 192 179
160.000000 -33.000000 7.268004 211 191 174
161.000000 -33.000000 7.416331 209 189 172
162.000000 -33.000000 7.317446 210 188 171
163.000000 -33.000000 7.515215 207 184 168
164.000000 -33.000000 7.564658 206 186 169
165.000000 -33.000000 7.218562 203 188 171
166.000000 -33.000000 7.268004 198 186 170
167.000000 -33.000000 7.564658 196 184 167
168.000000 -33.000000 7.416331 198 184 167
169.000000 -33.000000 7.366889 201 182 167
170.000000 -33.000000 7.614100 203 182 168
171.000000 -33.000000 8.059079 201 181 164
172.000000 -33.000000 8.157964 201 183 163
173.000000 -33.000000 8.059079 199 183 166
174.000000 -33.000000 8.108521 198 182 167
175.000000 -33.000000 8.207406 195 179 166
176.000000 -33.000000 8.207406 193 180 169
177.000000 -33.000000 8.454618 193 180 169
178.000000 -33.000000 8.454618 190 179 167
179.000000 -33.000000 8.652386 189 176 163
180.000000 -33.000000 8.602943 189 177 160
181.000000 -33.000000 8.652386 191 175 158
182.000000 -33.000000 9.196250 189 174 155
183.000000 -33.000000 9.295135 189 175 157
184.000000 -33.000000 9.097365 191 177 161
185.000000 -33.000000 8.899597 191 175 161
186.000000 -33.000000 8.899597 191 175 161
187.000000 -33.000000 8.504060 190 175 157
188.000000 -33.000000 7.762426 193 173 156
189.000000 -33.000000 7.317446 192 174 156
190.000000 -33.000000 8.108521 188 170 152
191.000000 -33.000000 8.355733 189 173 155
192.000000 -33.000000 8.009637 190 174 156
193.000000 -33.000000 8.207406 189 171 151
194.000000 -33.000000 6.921909 188 170 149
195.000000 -33.000000 14.338240 187 169 151
196.000000 -33.000000 15.772063 188 170 154
197.000000 -33.000000 16.414812 186 168 152
198.000000 -33.000000 16.909235 186 168 150
199.000000 -33.000000 17.304771 184 166 145
200.000000 -33.000000 18.046406 180 165 142
201.000000 -33.000000 18.590269 181 166 144
202.000000 -33.000000 19.233019 179 165 148
203.000000 -33.000000 20.024094 180 168 151
204.000000 -33.000000 20.518515 186 170 152
205.000000 -33.000000 21.161264 184 164 144
206.000000 -33.000000 21.853455 179 164 143
207.000000 -33.000000 22.397320 176 166 143
208.000000 -33.000000 22.891741 175 164 144
209.000000 -33.000000 23.336721 177 165 142
210.000000 -33.000000 24.177238 181 163 142
211.000000 -33.000000 24.622219 180 161 140
212.000000 -33.000000 25.363852 177 161 137
213.000000 -33.000000 25.808832 172 161 138
214.000000 -33.000000 26.303253 174 167 139
215.000000 -33.000000 26.599907 173 166 139
216.000000 -33.000000 26.995443 177 164 142
217.000000 -33.000000 27.440424 177 162 144
218.000000 -33.000000 27.984289 176 161 140
219.000000 -33.000000 28.231499 173 158 135
220.000000 -33.000000 28.429268 172 160 138
221.000000 -33.000000 29.022575 172 163 140
222.000000 -33.000000 29.170900 173 163 141
223.000000 -33.000000 29.665323 173 161 140
224.000000 -33.000000 29.863092 171 158 136
225.000000 -33.000000 30.308071 172 159 138
226.000000 -33.000000 30.654167 170 158 134
227.000000 -33.000000 30.851936 169 153 131
228.000000 -33.000000 30.654167 170 157 132
229.000000 -33.000000 31.000263 172 161 136
230.000000 -33.000000 31.099148 168 160 133
231.000000 -33.000000 30.901379 165 159 130
232.000000 -33.000000 31.000263 168 157 127
233.000000 -33.000000 31.049706 171 153 123
234.000000 -33.000000 30.950821 173 156 123
235.000000 -33.000000 31.198032 170 155 127
236.000000 -33.000000 30.753052 166 156 129
237.000000 -33.000000 30.654167 165 158 134
238.000000 -33.000000 30.654167 167 158 131
239.000000 -33.000000 30.357513 167 155 124
240.000000 -33.000000 29.863092 167 153 123
241.000000 -33.000000 29.516996 166 153 123
242.000000 -33.000000 29.022575 165 153 123
243.000000 -33.000000 27.242655 167 156 127
244.000000 -33.000000 27.687635 166 155 128
245.000000 -33.000000 28.478710 164 153 123
246.000000 -33.000000 27.984289 163 153 120
247.000000 -33.000000 28.429268 166 154 117
248.000000 -33.000000 28.033731 166 154 121
249.000000 -33.000000 27.193213 165 152 123
250.000000 -33.000000 26.649349 165 155 126
251.000000 -33.000000 26.946003 163 153 122
252.000000 -33.000000 25.462736 161 151 120
253.000000 -33.000000 24.473892 162 150 118
254.000000 -33.000000 25.166082 163 151 120
255.000000 -33.000000 24.523335 164 153 119
256.000000 -33.000000 24.375008 161 155 119
257.000000 -33.000000 22.941183 164 148 118
258.000000 -33.000000 22.891741 160 148 116
259.000000 -33.000000 22.298435 160 148 116
260.000000 -33.000000 21.507359 157 150 117
261.000000 -33.000000 20.617399 155 148 115
262.000000 -33.000000 19.529671 158 151 118
263.000000 -33.000000 13.497722 161 151 119
264.000000 -33.000000 10.234536 160 149 119
265.000000 -33.000000 10.877285 162 147 118
266.000000 -33.000000 10.926727 157 142 113
267.000000 -33.000000 10.728959 161 145 118
268.000000 -33.000000 10.382863 155 144 114
269.000000 -33.000000 11.173939 147 139 109
270.000000 -33.000000 12.558320 132 123 96
271.000000 -33.000000 12.014456 123 116 91
272.000000 -33.000000 20.963495 101 98 72
273.000000 -33.000000 45.981251 77 73 50
274.000000 -33.000000 45.783482 68 64 44
275.000000 -33.000000 45.635155 71 69 46
276.000000 -33.000000 45.585712 69 67 42
277.000000 -33.000000 45.486828 63 65 48
278.000000 -33.000000 45.338501 57 57 46
279.000000 -33.000000 45.239616 54 54 49
280.000000 -33.000000 45.140732 52 52 44
281.000000 -33.000000 44.942966 49 49 38
282.000000 -33.000000 44.844082 52 52 37
283.000000 -33.000000 44.646313 48 48 42
284.000000 -33.000000 44.448544 49 49 46
285.000000 -33.000000 44.250774 49 49 49
286.000000 -33.000000 44.201332 48 48 48
287.000000 -33.000000 44.003563 45 45 39
288.000000 -33.000000 43.954121 45 45 39
289.000000 -33.000000 43.163044 48 48 42
290.000000 -33.000000 43.558582 47 47 47
291.000000 -33.000000 43.113602 46 46 40
292.000000 -33.000000 42.421413 52 52 42
293.000000 -33.000000 41.926991 48 51 34
294.000000 -33.000000 40.888702 44 47 30
295.000000 -33.000000 39.652649 46 46 40
296.000000 -33.000000 40.740376 50 50 47
297.000000 -33.000000 41.333683 51 51 51
298.000000 -33.000000 41.284241 50 50 50
299.000000 -33.000000 40.641495 46 46 46
300.000000 -33.000000 41.234798 48 48 48
301.000000 -33.000000 41.037029 47 47 47
302.000000 -33.000000 41.729221 44 44 40
303.000000 -33.000000 41.580894 42 42 38
304.000000 -33.000000 41.679779 44 44 44
305.000000 -33.000000 40.740376 46 46 46
306.000000 -33.000000 41.333683 45 45 45
307.000000 -33.000000 41.135914 44 44 44
308.000000 -33.000000 40.938145 45 45 45
309.000000 -33.000000 39.751534 45 45 45
310.000000 -33.000000 39.454880 47 47 47
311.000000 -33.000000 38.564919 46 46 46
312.000000 -33.000000 38.466038 45 45 45
313.000000 -33.000000 37.823288 41 41 47
314.000000 -33.000000 39.652649 45 45 45
315.000000 -33.000000 40.394283 43 43 36
316.000000 -33.000000 40.789818 43 43 29
317.000000 -33.000000 40.938145 44 44 31
318.000000 -33.000000 41.135914 44 44 37
319.000000 -33.000000 41.135914 46 46 43
320.000000 -33.000000 41.432568 45 45 45
321.000000 -33.000000 41.383125 46 46 46
322.000000 -33.000000 41.234798 49 49 49
323.000000 -33.000000 41.482010 48 48 48
324.000000 -33.000000 41.432568 46 49 49
325.000000 -33.000000 41.432568 49 52 52
326.000000 -33.000000 41.482010 47 52 49
327.000000 -33.000000 41.482010 54 54 54
328.000000 -33.000000 41.432568 48 51 51
329.000000 -33.000000 41.531452 46 55 52
330.000000 -33.000000 41.482010 41 53 50
331.000000 -33.000000 41.531452 38 54 47
332.000000 -33.000000 41.482010 41 56 38
333.000000 -33.000000 41.432568 47 56 47
334.000000 -33.000000 41.383125 47 56 49
335.000000 -33.000000 41.185356 53 58 58
336.000000 -33.000000 41.135914 56 59 59
337.000000 -33.000000 41.037029 64 64 58
338.000000 -33.000000 40.987587 70 72 59
339.000000 -33.000000 35.746716 108 110 98
340.000000 -33.000000 39.405437 71 71 64
341.000000 -33.000000 40.048187 68 68 68
342.000000 -33.000000 35.647831 96 98 98
343.000000 -33.000000 40.592052 70 72 72
344.000000 -33.000000 40.097630 81 81 77
345.000000 -33.000000 38.169384 96 94 87
346.000000 -33.000000 40.592052 81 77 66
347.000000 -33.000000 40.493168 88 90 74
348.000000 -33.000000 39.949303 115 117 98
349.000000 -33.000000 2.274341 149 152 130
350.000000 -33.000000 3.411512 149 152 130
351.000000 -33.000000 0.296653 206 209 189
352.000000 -33.000000 0.247211 184 188 166
353.000000 -33.000000 0.098884 181 185 163
354.000000 -33.000000 1.038286 216 218 200
355.000000 -33.000000 0.840518 203 205 191
356.000000 -33.000000 1.186613 231 228 218
357.000000 -33.000000 1.285497 249 248 235
358.000000 -33.000000 1.334940 253 255 244
359.000000 -33.000000 1.433824 253 255 246
360.000000 -33.000000 1.483266 253 255 246
361.000000 -33.000000 1.483266 253 255 247
362.000000 -33.000000 1.532708 255 253 248
363.000000 -33.000000 1.532708 255 252 246
364.000000 -33.000000 1.532708 255 255 247
365.000000 -33.000000 1.532708 251 255 246
366.000000 -33.000000 1.532708 251 255 245
367.000000 -33.000000 1.532708 249 255 244
368.000000 -33.000000 1.532708 247 255 246
369.000000 -33.000000 1.532708 251 255 250
370.000000 -33.000000 1.532708 251 255 250
371.000000 -33.000000 1.582151 251 255 250
372.000000 -33.000000 1.532708 246 255 246
373.000000 -33.000000 1.582151 248 255 248
374.000000 -33.000000 1.582151 248 255 248
375.000000 -33.000000 1.582151 248 255 248
376.000000 -33.000000 1.582151 248 255 251
377.000000 -33.000000 1.582151 249 255 255
378.000000 -33.000000 1.532708 249 255 255
379.000000 -33.000000 1.532708 247 255 253
380.000000 -33.000000 1.532708 246 255 252
381.000000 -33.000000 1.532708 247 255 253
382.000000 -33.000000 1.582151 247 255 253
383.000000 -33.000000 1.582151 250 255 254
384.000000 -33.000000 1.582151 251 255 255
385.000000 -33.000000 1.532708 249 255 254
386.000000 -33.000000 1.532708 249 255 254
387.000000 -33.000000 1.532708 249 255 254
388.000000 -33.000000 1.532708 249 255 254
389.000000 -33.000000 1.532708 251 253 255
390.000000 -33.000000 1.532708 255 255 253
391.000000 -33.000000 16.612581 180 178 166
392.000000 -33.000000 13.646049 152 150 128
393.000000 -33.000000 13.646049 151 151 120
394.000000 -33.000000 13.497722 146 149 115
395.000000 -33.000000 13.497722 145 148 114
396.000000 -33.000000 13.349396 144 147 118
397.000000 -33.000000 13.398838 145 148 121
398.000000 -33.000000 13.250511 146 146 115
399.000000 -33.000000 13.250511 147 147 111
400.000000 -33.000000 13.250511 152 141 107
401.000000 -33.000000 13.201069 145 137 99
402.000000 -33.000000 13.201069 146 140 103
403.000000 -33.000000 13.102184 142 137 97
404.000000 -33.000000 13.102184 140 136 92
405.000000 -33.000000 13.052742 139 134 89
406.000000 -33.000000 12.756089 141 128 86
407.000000 -33.000000 12.409993 139 117 79
408.000000 -33.000000 10.926727 130 103 63
409.000000 -33.000000 8.949039 111 75 35
410.000000 -33.000000 8.504060 110 69 28
411.000000 -33.000000 8.504060 114 66 24
412.000000 -33.000000 8.306291 113 67 21
413.000000 -33.000000 8.256848 112 69 20
414.000000 -33.000000 8.207406 110 67 19
415.000000 -33.000000 7.910753 107 63 20
416.000000 -33.000000 8.108521 111 67 24
417.000000 -33.000000 7.811869 116 68 25
418.000000 -33.000000 7.762426 113 62 23
419.000000 -33.000000 7.762426 116 67 30
420.000000 -33.000000 6.872467 116 74 36
421.000000 -33.000000 3.263186 140 104 68
422.000000 -33.000000 -0.494422 30 30 30
423.000000 -33.000000 -0.494422 30 30 30
130.000000 -34.000000 6.081391 252 237 229
131.000000 -34.000000 5.982507 250 231 224
132.000000 -34.000000 5.982507 248 229 222
133.000000 -34.000000 5.982507 243 230 220
134.000000 -34.000000 5.982507 245 232 221
135.000000 -34.000000 6.031949 243 231 219
136.000000 -34.000000 6.081391 240 228 214
137.000000 -34.000000 6.130834 238 227 210
138.000000 -34.000000 6.081391 236 224 210
139.000000 -34.000000 6.130834 232 220 206
140.000000 -34.000000 6.180276 231 219 205
141.000000 -34.000000 6.328602 227 215 203
142.000000 -34.000000 6.378045 226 215 203
143.000000 -34.000000 6.427487 225 214 201
144.000000 -34.000000 6.476929 224 212 195
145.000000 -34.000000 6.427487 227 212 194
146.000000 -34.000000 6.476929 226 212 196
147.000000 -34.000000 6.575813 223 211 197
148.000000 -34.000000 6.575813 224 205 195
149.000000 -34.000000 6.625256 220 201 189
150.000000 -34.000000 6.724140 216 198 185
151.000000 -34.000000 6.773582 217 199 184
152.000000 -34.000000 6.872467 216 198 181
153.000000 -34.000000 6.971351 214 202 187
154.000000 -34.000000 6.971351 215 203 189
155.000000 -34.000000 7.070235 215 198 186
156.000000 -34.000000 7.119678 216 198 185
157.000000 -34.000000 7.268004 215 195 183
158.000000 -34.000000 7.268004 213 192 181
159.000000 -34.000000 7.218562 210 190 177
160.000000 -34.000000 7.366889 206 187 172
161.000000 -34.000000 7.465773 206 187 172
162.000000 -34.000000 7.317446 206 188 171
163.000000 -34.000000 7.564658 204 184 168
164.000000 -34.000000 7.712984 202 182 165
165.000000 -34.000000 7.268004 202 186 168
166.000000 -34.000000 7.317446 199 187 170
167.000000 -34.000000 7.614100 196 184 167
168.000000 -34.000000 7.515215 196 180 167
169.000000 -34.000000 7.465773 196 182 171
170.000000 -34.000000 7.712984 197 181 170
171.000000 -34.000000 8.108521 197 181 168
172.000000 -34.000000 8.207406 200 181 165
173.000000 -34.000000 8.108521 200 184 167
174.000000 -34.000000 8.157964 199 184 167
175.000000 -34.000000 8.207406 195 181 165
176.000000 -34.000000 8.306291 194 181 168
177.000000 -34.000000 8.602943 191 178 167
178.000000 -34.000000 8.504060 191 180 168
179.000000 -34.000000 8.701828 189 178 163
180.000000 -34.000000 8.701828 188 176 159
181.000000 -34.000000 8.701828 188 176 158
182.000000 -34.000000 9.245692 188 175 157
183.000000 -34.000000 9.344577 188 175 157
184.000000 -34.000000 9.196250 189 176 157
185.000000 -34.000000 9.047924 189 176 157
186.000000 -34.000000 9.047924 189 176 157
187.000000 -34.000000 8.602943 188 175 157
188.000000 -34.000000 7.960195 188 172 154
189.000000 -34.000000 8.553501 184 168 150
190.000000 -34.000000 8.256848 184 171 152
191.000000 -34.000000 8.504060 186 173 155
192.000000 -34.000000 8.504060 183 171 152
193.000000 -34.000000 8.454618 186 170 152
194.000000 -34.000000 7.070235 186 170 152
195.000000 -34.000000 14.387682 185 169 151
196.000000 -34.000000 15.821506 183 170 152
197.000000 -34.000000 16.464254 181 168 149
198.000000 -34.000000 16.958677 181 166 148
199.000000 -34.000000 17.453098 179 164 141
200.000000 -34.000000 18.095848 181 164 139
201.000000 -34.000000 18.639711 182 167 146
202.000000 -34.000000 19.282459 182 169 149
203.000000 -34.000000 20.073536 182 166 148
204.000000 -34.000000 20.518515 185 169 151
205.000000 -34.000000 21.210707 184 165 147
206.000000 -34.000000 21.902897 182 164 146
207.000000 -34.000000 22.446762 179 161 143
208.000000 -34.000000 22.941183 176 164 147
209.000000 -34.000000 23.386164 179 166 148
210.000000 -34.000000 24.226681 176 164 143
211.000000 -34.000000 24.671661 177 167 144
212.000000 -34.000000 25.363852 172 164 141
213.000000 -34.000000 25.858274 172 164 140
214.000000 -34.000000 26.352695 173 165 141
215.000000 -34.000000 26.649349 175 167 147
216.000000 -34.000000 27.044886 173 165 145
217.000000 -34.000000 27.539309 172 163 145
218.000000 -34.000000 28.083172 171 160 136
219.000000 -34.000000 28.379826 174 163 139
220.000000 -34.000000 28.478710 171 163 139
221.000000 -34.000000 29.022575 171 163 139
222.000000 -34.000000 29.220343 171 162 138
223.000000 -34.000000 29.714766 174 162 139
224.000000 -34.000000 29.912535 172 160 136
225.000000 -34.000000 30.357513 171 159 136
226.000000 -34.000000 30.703609 169 157 133
227.000000 -34.000000 31.049706 170 157 135
228.000000 -34.000000 30.703609 170 157 135
229.000000 -34.000000 31.148590 170 157 135
230.000000 -34.000000 31.198032 172 158 135
231.000000 -34.000000 31.049706 172 157 132
232.000000 -34.000000 31.099148 173 156 126
233.000000 -34.000000 31.247475 173 155 125
234.000000 -34.000000 31.148590 169 156 120
235.000000 -34.000000 31.296917 169 157 121
236.000000 -34.000000 30.851936 167 157 120
237.000000 -34.000000 30.802494 168 157 130
238.000000 -34.000000 30.753052 168 158 131
239.000000 -34.000000 30.456398 166 156 129
240.000000 -34.000000 29.961977 164 153 126
241.000000 -34.000000 29.615881 165 155 123
242.000000 -34.000000 29.170900 161 156 125
243.000000 -34.000000 27.341539 166 155 129
244.000000 -34.000000 27.934847 166 151 125
245.000000 -34.000000 28.725922 163 150 120
246.000000 -34.000000 28.132614 162 156 120
247.000000 -34.000000 28.627037 165 153 115
248.000000 -34.000000 28.231499 166 152 115
249.000000 -34.000000 27.292097 164 152 119
250.000000 -34.000000 26.995443 162 152 122
251.000000 -34.000000 27.094328 161 154 126
252.000000 -34.000000 25.611063 162 151 127
253.000000 -34.000000 24.721104 164 154 127
254.000000 -34.000000 25.314409 163 153 122
255.000000 -34.000000 24.869429 161 150 116
256.000000 -34.000000 24.473892 162 152 116
257.000000 -34.000000 23.040068 163 147 117
258.000000 -34.000000 23.089510 164 148 118
259.000000 -34.000000 22.496204 160 146 115
260.000000 -34.000000 21.606243 156 148 116
261.000000 -34.000000 20.765726 156 153 118
262.000000 -34.000000 19.628555 159 152 118
263.000000 -34.000000 13.646049 157 148 116
264.000000 -34.000000 10.283978 159 149 117
265.000000 -34.000000 10.926727 161 148 119
266.000000 -34.000000 11.025612 159 144 115
267.000000 -34.000000 10.877285 157 140 112
268.000000 -34.000000 10.531190 150 137 111
269.000000 -34.000000 11.470592 139 131 103
270.000000 -34.000000 12.805532 121 117 90
271.000000 -34.000000 21.309591 99 99 68
272.000000 -34.000000 46.129578 73 71 44
273.000000 -34.000000 45.981251 70 66 48
274.000000 -34.000000 45.783482 70 66 50
275.000000 -34.000000 45.635155 68 66 46
276.000000 -34.000000 45.635155 64 64 39
277.000000 -34.000000 45.486828 59 61 41
278.000000 -34.000000 45.387943 50 53 36
279.000000 -34.000000 45.289059 48 48 37
280.000000 -34.000000 45.190174 50 50 37
281.000000 -34.000000 44.992409 49 52 35
282.000000 -34.000000 44.893524 53 53 39
283.000000 -34.000000 44.695755 49 49 38
284.000000 -34.000000 44.497986 47 47 38
285.000000 -34.000000 44.300217 47 47 41
286.000000 -34.000000 44.250774 47 47 41
287.000000 -34.000000 44.053005 46 46 40
288.000000 -34.000000 43.954121 45 45 39
289.000000 -34.000000 43.212486 46 46 43
290.000000 -34.000000 43.657467 44 44 44
291.000000 -34.000000 43.113602 46 46 40
292.000000 -34.000000 42.965275 43 46 25
293.000000 -34.000000 42.470856 42 45 23
294.000000 -34.000000 41.037029 42 45 29
295.000000 -34.000000 39.751534 46 46 40
296.000000 -34.000000 40.839260 48 48 48
297.000000 -34.000000 41.630337 47 47 47
298.000000 -34.000000 41.482010 47 47 47
299.000000 -34.000000 40.690937 46 46 46
300.000000 -34.000000 41.284241 47 47 47
301.000000 -34.000000 41.086472 46 46 37
302.000000 -34.000000 41.778664 45 45 33
303.000000 -34.000000 41.630337 43 43 36
304.000000 -34.000000 41.729221 44 44 40
305.000000 -34.000000 40.789818 43 43 46
306.000000 -34.000000 41.432568 40 40 44
307.000000 -34.000000 41.234798 42 42 42
308.000000 -34.000000 40.987587 44 44 44
309.000000 -34.000000 39.899860 44 44 44
310.000000 -34.000000 39.553764 46 46 46
311.000000 -34.000000 38.663803 46 46 46
312.000000 -34.000000 38.911015 49 49 49
313.000000 -34.000000 37.971615 48 42 42
314.000000 -34.000000 39.800976 48 42 42
315.000000 -34.000000 40.493168 42 42 42
316.000000 -34.000000 40.839260 37 43 44
317.000000 -34.000000 40.938145 31 44 41
318.000000 -34.000000 41.185356 36 42 43
319.000000 -34.000000 41.185356 43 46 46
320.000000 -34.000000 41.432568 46 46 46
321.000000 -34.000000 41.432568 48 45 45
322.000000 -34.000000 41.284241 43 46 46
323.000000 -34.000000 41.531452 42 50 50
324.000000 -34.000000 41.482010 43 53 50
325.000000 -34.000000 41.432568 41 55 52
326.000000 -34.000000 41.482010 43 51 51
327.000000 -34.000000 41.531452 44 52 49
328.000000 -34.000000 41.432568 42 52 49
329.000000 -34.000000 41.531452 40 54 51
330.000000 -34.000000 41.482010 39 55 52
331.000000 -34.000000 41.531452 41 55 50
332.000000 -34.000000 41.482010 39 55 46
333.000000 -34.000000 41.432568 40 56 47
334.000000 -34.000000 41.383125 43 56 49
335.000000 -34.000000 41.185356 43 53 50
336.000000 -34.000000 41.135914 46 51 51
337.000000 -34.000000 40.987587 57 57 50
338.000000 -34.000000 40.888702 55 60 44
339.000000 -34.000000 40.839260 56 62 44
340.000000 -34.000000 40.740376 50 59 48
341.000000 -34.000000 40.592052 50 59 57
342.000000 -34.000000 40.839260 50 62 64
343.000000 -34.000000 40.888702 52 62 60
344.000000 -34.000000 40.888702 61 67 59
345.000000 -34.000000 40.740376 74 78 66
346.000000 -34.000000 40.690937 73 73 62
347.000000 -34.000000 40.592052 80 82 69
348.000000 -34.000000 39.949303 110 112 99
349.000000 -34.000000 2.323784 142 147 130
350.000000 -34.000000 8.998482 127 131 113
351.000000 -34.000000 -0.049442 174 177 156
352.000000 -34.000000 2.472110 152 155 131
353.000000 -34.000000 0.049442 174 177 155
354.000000 -34.000000 0.840518 199 202 182
355.000000 -34.000000 -0.543864 146 148 130
356.000000 -34.000000 1.186613 229 231 214
357.000000 -34.000000 1.285497 245 247 233
358.000000 -34.000000 1.384382 247 249 237
359.000000 -34.000000 1.483266 252 254 245
360.000000 -34.000000 1.483266 253 255 247
361.000000 -34.000000 1.483266 253 255 247
362.000000 -34.000000 1.532708 253 255 247
363.000000 -34.000000 1.532708 253 255 247
364.000000 -34.000000 1.532708 253 255 247
