ply
        format ascii 1.0
        element vertex 71089
        property float x
        property float y
        property float z
        property uchar red
        property uchar green
        property uchar blue
        end_header
395.000000 -125.000000 20.367308 127 70 42
396.000000 -125.000000 20.367308 129 71 43
397.000000 -125.000000 20.367308 131 75 46
398.000000 -125.000000 20.317142 122 66 39
399.000000 -125.000000 20.216810 125 73 45
400.000000 -125.000000 20.216810 119 67 40
401.000000 -125.000000 20.166645 117 67 41
402.000000 -125.000000 20.116480 120 67 40
403.000000 -125.000000 20.116480 111 59 31
404.000000 -125.000000 20.166645 119 72 43
405.000000 -125.000000 20.166645 120 75 45
406.000000 -125.000000 20.216810 112 67 37
407.000000 -125.000000 20.216810 112 65 36
408.000000 -125.000000 20.266977 118 73 41
409.000000 -125.000000 20.266977 124 76 43
410.000000 -125.000000 20.266977 118 66 35
411.000000 -125.000000 20.317142 103 55 31
412.000000 -125.000000 20.367308 62 25 6
413.000000 -125.000000 20.417475 57 26 13
414.000000 -125.000000 20.417475 49 23 7
415.000000 -125.000000 20.467640 38 18 0
416.000000 -125.000000 20.618137 34 16 0
417.000000 -125.000000 20.768635 35 15 0
418.000000 -125.000000 20.517805 47 25 5
419.000000 -125.000000 0.000000 40 18 0
420.000000 -125.000000 0.000000 46 24 0
421.000000 -125.000000 0.000000 48 26 1
422.000000 -125.000000 17.758688 49 32 7
423.000000 -125.000000 17.708521 43 27 7
424.000000 -125.000000 17.708521 0 0 0
63.000000 -126.000000 21.320457 23 0 0
64.000000 -126.000000 21.370625 19 1 0
65.000000 -126.000000 21.370625 17 1 0
66.000000 -126.000000 21.470955 18 0 0
67.000000 -126.000000 21.521122 21 0 0
68.000000 -126.000000 21.621452 25 0 0
69.000000 -126.000000 21.671619 28 0 0
70.000000 -126.000000 21.671619 29 0 0
71.000000 -126.000000 21.671619 27 0 0
72.000000 -126.000000 21.671619 32 2 0
73.000000 -126.000000 21.671619 40 9 0
74.000000 -126.000000 21.671619 47 16 0
75.000000 -126.000000 21.671619 40 9 0
76.000000 -126.000000 21.671619 48 15 0
77.000000 -126.000000 21.671619 44 9 0
78.000000 -126.000000 21.671619 47 11 0
79.000000 -126.000000 21.621452 41 4 0
80.000000 -126.000000 21.571287 34 1 0
81.000000 -126.000000 21.571287 30 2 0
82.000000 -126.000000 21.621452 26 3 0
83.000000 -126.000000 21.671619 23 0 0
84.000000 -126.000000 21.671619 36 7 0
85.000000 -126.000000 21.671619 44 10 0
86.000000 -126.000000 21.671619 54 18 0
87.000000 -126.000000 21.671619 53 18 0
88.000000 -126.000000 21.671619 48 13 0
89.000000 -126.000000 21.671619 49 14 0
90.000000 -126.000000 21.671619 49 14 0
91.000000 -126.000000 21.671619 48 13 0
92.000000 -126.000000 21.671619 50 14 0
93.000000 -126.000000 21.671619 53 15 0
94.000000 -126.000000 21.671619 51 12 0
95.000000 -126.000000 21.621452 54 14 0
96.000000 -126.000000 21.521122 51 10 0
97.000000 -126.000000 21.521122 50 15 0
98.000000 -126.000000 21.521122 44 13 0
99.000000 -126.000000 21.571287 44 15 0
100.000000 -126.000000 21.521122 40 11 0
101.000000 -126.000000 21.521122 45 12 0
102.000000 -126.000000 21.521122 47 15 0
103.000000 -126.000000 21.470955 45 16 0
104.000000 -126.000000 21.420790 39 12 0
105.000000 -126.000000 21.420790 37 14 0
106.000000 -126.000000 21.420790 39 13 0
107.000000 -126.000000 21.420790 32 9 0
108.000000 -126.000000 21.420790 34 11 0
109.000000 -126.000000 21.420790 34 11 0
110.000000 -126.000000 21.621452 36 14 0
111.000000 -126.000000 21.621452 34 10 0
112.000000 -126.000000 21.621452 30 10 0
113.000000 -126.000000 21.571287 27 16 0
114.000000 -126.000000 21.571287 29 19 2
115.000000 -126.000000 21.571287 20 11 4
116.000000 -126.000000 21.571287 147 144 129
117.000000 -126.000000 21.571287 133 136 126
118.000000 -126.000000 21.521122 123 131 122
119.000000 -126.000000 21.521122 123 134 125
131.000000 -126.000000 12.842441 131 135 130
132.000000 -126.000000 12.892607 134 137 129
133.000000 -126.000000 12.892607 134 137 130
134.000000 -126.000000 12.892607 140 143 136
135.000000 -126.000000 12.892607 135 138 133
136.000000 -126.000000 12.892607 133 136 131
137.000000 -126.000000 12.942772 138 141 135
138.000000 -126.000000 12.942772 137 140 135
139.000000 -126.000000 13.043104 138 141 136
140.000000 -126.000000 16.303879 132 136 131
141.000000 -126.000000 16.303879 136 141 132
142.000000 -126.000000 16.253714 134 140 131
143.000000 -126.000000 16.203548 140 145 137
144.000000 -126.000000 16.253714 140 143 135
145.000000 -126.000000 16.354046 139 144 135
146.000000 -126.000000 16.855703 137 142 131
147.000000 -126.000000 17.056366 135 143 132
148.000000 -126.000000 17.357361 138 147 137
149.000000 -126.000000 17.608191 136 144 137
150.000000 -126.000000 17.758688 136 144 140
151.000000 -126.000000 17.909185 135 143 137
152.000000 -126.000000 18.009516 137 145 138
153.000000 -126.000000 18.059683 139 143 138
154.000000 -126.000000 18.059683 138 142 137
155.000000 -126.000000 18.160013 145 149 144
156.000000 -126.000000 18.461008 146 153 147
157.000000 -126.000000 18.661671 144 151 147
158.000000 -126.000000 18.762003 146 150 149
159.000000 -126.000000 19.012833 150 154 153
160.000000 -126.000000 19.263660 152 154 154
161.000000 -126.000000 19.514490 154 155 155
162.000000 -126.000000 19.614820 161 161 161
163.000000 -126.000000 19.765318 167 165 165
164.000000 -126.000000 19.765318 176 178 178
165.000000 -126.000000 19.715153 176 178 178
166.000000 -126.000000 19.715153 176 182 181
167.000000 -126.000000 19.715153 182 191 189
168.000000 -126.000000 19.765318 186 196 194
169.000000 -126.000000 19.765318 188 194 193
171.000000 -126.000000 10.183654 198 202 201
172.000000 -126.000000 10.183654 198 199 199
173.000000 -126.000000 10.233820 202 202 202
174.000000 -126.000000 10.334151 195 200 200
175.000000 -126.000000 10.434483 197 203 202
176.000000 -126.000000 10.434483 204 208 209
177.000000 -126.000000 10.484649 205 209 210
178.000000 -126.000000 10.484649 204 208 211
179.000000 -126.000000 10.584980 206 210 211
180.000000 -126.000000 10.685312 208 212 213
181.000000 -126.000000 10.685312 205 209 210
182.000000 -126.000000 10.685312 209 213 214
183.000000 -126.000000 10.785644 212 216 217
184.000000 -126.000000 10.885975 208 212 213
185.000000 -126.000000 10.835810 214 218 219
186.000000 -126.000000 10.835810 211 215 216
187.000000 -126.000000 10.835810 215 219 220
188.000000 -126.000000 10.885975 218 222 223
189.000000 -126.000000 10.986306 217 223 224
190.000000 -126.000000 11.136804 215 221 222
191.000000 -126.000000 11.136804 216 224 224
192.000000 -126.000000 11.036472 214 224 224
193.000000 -126.000000 11.036472 215 225 225
194.000000 -126.000000 11.036472 216 224 224
195.000000 -126.000000 11.036472 227 231 230
196.000000 -126.000000 11.036472 221 225 224
197.000000 -126.000000 11.036472 225 227 227
198.000000 -126.000000 11.036472 225 227 227
199.000000 -126.000000 11.086638 226 228 228
200.000000 -126.000000 11.136804 226 230 229
201.000000 -126.000000 11.136804 223 227 226
202.000000 -126.000000 11.237136 228 232 233
203.000000 -126.000000 11.186970 229 233 234
206.000000 -126.000000 11.237136 228 232 233
207.000000 -126.000000 21.521122 229 233 234
208.000000 -126.000000 21.521122 230 234 235
209.000000 -126.000000 21.521122 229 233 234
210.000000 -126.000000 21.521122 232 235 236
211.000000 -126.000000 21.571287 232 235 237
212.000000 -126.000000 21.621452 226 230 231
213.000000 -126.000000 21.671619 228 234 235
214.000000 -126.000000 21.671619 229 233 234
215.000000 -126.000000 21.671619 231 233 235
216.000000 -126.000000 21.671619 234 238 239
217.000000 -126.000000 21.721785 232 236 237
218.000000 -126.000000 21.771950 226 230 231
219.000000 -126.000000 21.872282 233 239 242
220.000000 -126.000000 22.273607 228 234 237
221.000000 -126.000000 24.781897 225 233 235
222.000000 -126.000000 24.832064 228 236 236
223.000000 -126.000000 24.832064 233 241 241
227.000000 -126.000000 30.300133 233 237 238
228.000000 -126.000000 30.400465 234 238 239
229.000000 -126.000000 30.400465 237 241 242
230.000000 -126.000000 30.450630 235 239 240
231.000000 -126.000000 30.500797 232 236 237
232.000000 -126.000000 30.500797 232 236 237
233.000000 -126.000000 30.500797 232 236 237
234.000000 -126.000000 30.500797 232 236 236
235.000000 -126.000000 30.500797 224 231 229
236.000000 -126.000000 30.500797 36 44 41
237.000000 -126.000000 30.500797 104 114 76
238.000000 -126.000000 30.500797 144 141 52
239.000000 -126.000000 30.500797 162 146 52
240.000000 -126.000000 30.550962 167 148 43
241.000000 -126.000000 30.601128 173 150 35
242.000000 -126.000000 31.002455 173 155 39
243.000000 -126.000000 31.554277 172 155 37
244.000000 -126.000000 31.855272 168 153 33
245.000000 -126.000000 32.005772 178 161 41
246.000000 -126.000000 32.106102 186 167 45
247.000000 -126.000000 32.106102 181 160 41
248.000000 -126.000000 32.156269 177 159 29
249.000000 -126.000000 32.156269 181 165 38
250.000000 -126.000000 32.206432 194 173 55
251.000000 -126.000000 32.256599 202 184 56
252.000000 -126.000000 32.306767 222 209 86
253.000000 -126.000000 32.306767 194 178 80
254.000000 -126.000000 32.407097 144 142 80
255.000000 -126.000000 32.407097 96 105 92
256.000000 -126.000000 32.407097 101 111 131
257.000000 -126.000000 32.356930 105 114 140
258.000000 -126.000000 32.306767 106 117 148
259.000000 -126.000000 32.306767 102 116 142
260.000000 -126.000000 32.256599 99 118 146
261.000000 -126.000000 32.256599 110 124 147
262.000000 -126.000000 32.206432 129 130 111
263.000000 -126.000000 32.156269 198 182 90
264.000000 -126.000000 32.106102 228 210 83
265.000000 -126.000000 32.106102 235 211 94
266.000000 -126.000000 32.055935 239 214 79
267.000000 -126.000000 31.955605 235 208 75
268.000000 -126.000000 31.805107 228 203 72
269.000000 -126.000000 31.654610 222 201 78
270.000000 -126.000000 31.504112 173 164 101
271.000000 -126.000000 31.303450 116 124 134
272.000000 -126.000000 31.203117 117 129 150
273.000000 -126.000000 31.102785 124 127 150
274.000000 -126.000000 30.952288 125 129 126
275.000000 -126.000000 30.751625 195 194 183
276.000000 -126.000000 30.651295 237 238 230
277.000000 -126.000000 30.550962 241 245 242
278.000000 -126.000000 30.500797 245 245 246
279.000000 -126.000000 30.450630 241 243 243
280.000000 -126.000000 30.450630 240 242 242
281.000000 -126.000000 30.450630 245 249 248
294.000000 -126.000000 21.169960 243 247 248
295.000000 -126.000000 21.320457 244 248 249
296.000000 -126.000000 21.220127 243 247 248
297.000000 -126.000000 21.270292 245 248 250
298.000000 -126.000000 21.220127 248 250 252
299.000000 -126.000000 21.220127 243 245 247
300.000000 -126.000000 21.169960 240 243 247
301.000000 -126.000000 21.119795 238 242 245
302.000000 -126.000000 21.019463 237 241 242
303.000000 -126.000000 20.969297 237 241 242
304.000000 -126.000000 20.969297 235 239 240
305.000000 -126.000000 20.919132 235 237 236
306.000000 -126.000000 20.919132 236 236 237
307.000000 -126.000000 20.919132 235 235 237
308.000000 -126.000000 20.919132 232 232 236
309.000000 -126.000000 20.919132 234 233 239
311.000000 -126.000000 46.553848 233 232 239
312.000000 -126.000000 46.553848 233 232 239
313.000000 -126.000000 46.553848 232 234 240
314.000000 -126.000000 46.553848 231 235 238
315.000000 -126.000000 46.604012 234 238 241
316.000000 -126.000000 46.704346 235 237 243
317.000000 -126.000000 46.854843 231 235 241
318.000000 -126.000000 46.905006 230 236 241
319.000000 -126.000000 46.955173 229 232 238
320.000000 -126.000000 47.105671 233 233 240
321.000000 -126.000000 47.206001 236 233 240
322.000000 -126.000000 47.356499 235 235 242
323.000000 -126.000000 47.406666 227 232 236
324.000000 -126.000000 47.456833 224 231 233
325.000000 -126.000000 47.557163 231 236 238
326.000000 -126.000000 47.557163 231 236 238
327.000000 -126.000000 -0.802653 228 234 237
328.000000 -126.000000 -0.802653 230 234 239
329.000000 -126.000000 -0.802653 236 239 245
330.000000 -126.000000 -0.802653 235 237 243
331.000000 -126.000000 -0.802653 232 232 239
334.000000 -126.000000 0.150497 239 237 244
335.000000 -126.000000 0.150497 239 236 243
336.000000 -126.000000 0.150497 235 235 242
337.000000 -126.000000 0.200663 231 234 239
338.000000 -126.000000 0.200663 230 233 240
339.000000 -126.000000 0.200663 233 236 245
340.000000 -126.000000 0.150497 233 236 243
341.000000 -126.000000 0.150497 235 238 245
342.000000 -126.000000 0.150497 235 238 242
343.000000 -126.000000 0.100332 236 238 241
344.000000 -126.000000 0.100332 233 235 240
345.000000 -126.000000 0.100332 231 234 240
346.000000 -126.000000 0.100332 231 234 241
347.000000 -126.000000 0.100332 232 237 244
374.000000 -126.000000 20.969297 239 241 248
375.000000 -126.000000 21.019463 245 247 253
376.000000 -126.000000 21.019463 247 246 253
377.000000 -126.000000 21.019463 245 245 250
378.000000 -126.000000 20.868965 240 241 244
379.000000 -126.000000 20.818800 238 242 243
380.000000 -126.000000 20.818800 237 243 243
381.000000 -126.000000 20.818800 238 240 244
382.000000 -126.000000 20.818800 237 239 243
383.000000 -126.000000 20.818800 245 246 247
384.000000 -126.000000 20.768635 128 120 115
385.000000 -126.000000 20.768635 87 66 56
386.000000 -126.000000 20.768635 120 76 64
387.000000 -126.000000 20.768635 124 75 57
388.000000 -126.000000 20.768635 121 75 52
389.000000 -126.000000 20.718468 122 80 54
390.000000 -126.000000 20.718468 122 81 56
391.000000 -126.000000 20.618137 117 76 52
392.000000 -126.000000 20.567972 118 74 48
393.000000 -126.000000 20.367308 121 71 45
394.000000 -126.000000 20.317142 121 68 43
395.000000 -126.000000 20.317142 121 66 43
396.000000 -126.000000 20.317142 123 67 43
397.000000 -126.000000 20.317142 122 65 38
398.000000 -126.000000 20.266977 120 67 39
399.000000 -126.000000 20.216810 124 74 48
400.000000 -126.000000 20.166645 126 75 50
401.000000 -126.000000 20.166645 124 70 45
402.000000 -126.000000 20.116480 119 59 35
403.000000 -126.000000 20.166645 123 67 40
404.000000 -126.000000 20.166645 127 74 44
405.000000 -126.000000 20.216810 125 73 41
406.000000 -126.000000 20.216810 111 65 29
407.000000 -126.000000 20.266977 115 67 32
408.000000 -126.000000 20.266977 119 70 33
409.000000 -126.000000 20.266977 123 72 36
410.000000 -126.000000 20.317142 115 63 32
411.000000 -126.000000 20.367308 97 51 26
412.000000 -126.000000 20.417475 65 21 2
413.000000 -126.000000 20.618137 61 25 7
414.000000 -126.000000 20.668303 41 11 0
415.000000 -126.000000 20.718468 33 9 0
416.000000 -126.000000 20.818800 34 14 0
417.000000 -126.000000 20.868965 41 21 2
418.000000 -126.000000 20.818800 45 23 3
419.000000 -126.000000 0.000000 36 13 0
420.000000 -126.000000 0.000000 47 25 2
421.000000 -126.000000 0.000000 50 31 9
422.000000 -126.000000 0.000000 49 31 12
423.000000 -126.000000 17.708521 48 32 15
424.000000 -126.000000 0.000000 0 0 0
62.000000 -127.000000 21.621452 32 0 0
63.000000 -127.000000 21.621452 30 0 0
64.000000 -127.000000 21.521122 24 0 0
65.000000 -127.000000 21.521122 21 0 0
66.000000 -127.000000 21.521122 21 0 0
67.000000 -127.000000 21.621452 23 0 0
68.000000 -127.000000 21.671619 26 0 0
69.000000 -127.000000 21.671619 29 0 0
70.000000 -127.000000 21.721785 29 0 0
71.000000 -127.000000 21.671619 29 0 0
72.000000 -127.000000 21.671619 34 5 0
73.000000 -127.000000 21.621452 40 10 0
74.000000 -127.000000 21.621452 41 12 0
75.000000 -127.000000 21.621452 39 14 0
76.000000 -127.000000 21.671619 45 16 0
77.000000 -127.000000 21.671619 41 9 0
78.000000 -127.000000 21.671619 41 6 0
79.000000 -127.000000 21.621452 49 12 0
80.000000 -127.000000 21.571287 42 4 0
81.000000 -127.000000 21.571287 35 1 0
82.000000 -127.000000 21.671619 27 0 0
83.000000 -127.000000 21.671619 29 0 0
84.000000 -127.000000 21.671619 41 7 0
85.000000 -127.000000 21.671619 51 10 0
86.000000 -127.000000 21.671619 55 12 0
87.000000 -127.000000 21.671619 55 15 0
88.000000 -127.000000 21.671619 51 15 0
89.000000 -127.000000 21.671619 48 14 0
90.000000 -127.000000 21.721785 48 14 0
91.000000 -127.000000 21.721785 54 18 0
92.000000 -127.000000 21.721785 50 13 0
93.000000 -127.000000 21.721785 47 11 0
94.000000 -127.000000 21.671619 48 13 0
95.000000 -127.000000 21.671619 49 15 0
96.000000 -127.000000 21.621452 48 12 0
97.000000 -127.000000 21.621452 50 14 0
98.000000 -127.000000 21.621452 47 14 0
99.000000 -127.000000 21.671619 39 6 0
100.000000 -127.000000 21.671619 44 12 0
101.000000 -127.000000 21.621452 47 15 0
102.000000 -127.000000 21.571287 43 14 0
103.000000 -127.000000 21.571287 47 18 0
104.000000 -127.000000 21.470955 38 10 0
105.000000 -127.000000 21.470955 38 12 0
106.000000 -127.000000 21.470955 34 8 0
107.000000 -127.000000 21.470955 37 14 0
108.000000 -127.000000 21.470955 40 17 0
109.000000 -127.000000 21.470955 35 12 0
110.000000 -127.000000 21.621452 32 10 0
111.000000 -127.000000 21.621452 32 11 0
112.000000 -127.000000 21.621452 31 15 0
113.000000 -127.000000 21.621452 24 14 0
114.000000 -127.000000 21.621452 30 20 5
115.000000 -127.000000 21.621452 19 14 5
116.000000 -127.000000 21.621452 146 146 133
117.000000 -127.000000 21.621452 132 131 122
118.000000 -127.000000 21.571287 130 134 126
119.000000 -127.000000 21.571287 126 131 123
131.000000 -127.000000 12.842441 132 136 133
132.000000 -127.000000 12.842441 136 139 136
133.000000 -127.000000 12.842441 136 139 136
134.000000 -127.000000 12.842441 134 137 134
135.000000 -127.000000 12.892607 137 140 137
136.000000 -127.000000 12.892607 137 140 137
137.000000 -127.000000 12.942772 132 135 130
138.000000 -127.000000 12.942772 135 138 133
141.000000 -127.000000 16.203548 133 138 130
142.000000 -127.000000 16.203548 139 144 135
143.000000 -127.000000 16.153383 139 144 136
144.000000 -127.000000 16.153383 137 140 137
145.000000 -127.000000 16.153383 136 140 137
146.000000 -127.000000 16.855703 136 140 135
147.000000 -127.000000 17.357361 133 141 133
148.000000 -127.000000 17.608191 132 140 132
149.000000 -127.000000 17.758688 136 144 136
150.000000 -127.000000 17.909185 134 142 133
151.000000 -127.000000 18.109848 139 148 138
152.000000 -127.000000 18.109848 138 147 138
153.000000 -127.000000 18.160013 138 148 139
154.000000 -127.000000 18.160013 135 146 137
155.000000 -127.000000 18.461008 136 144 138
156.000000 -127.000000 18.461008 140 148 144
157.000000 -127.000000 18.762003 140 147 144
158.000000 -127.000000 18.812168 144 150 149
159.000000 -127.000000 19.263660 145 150 149
160.000000 -127.000000 19.263660 149 153 152
161.000000 -127.000000 19.514490 153 155 155
162.000000 -127.000000 19.715153 161 161 161
163.000000 -127.000000 19.765318 168 168 168
164.000000 -127.000000 19.765318 171 174 174
165.000000 -127.000000 19.765318 176 180 179
166.000000 -127.000000 19.715153 183 189 188
167.000000 -127.000000 19.715153 188 194 193
168.000000 -127.000000 19.765318 188 196 194
169.000000 -127.000000 19.765318 192 196 195
171.000000 -127.000000 10.384317 197 201 200
172.000000 -127.000000 10.283986 196 199 198
173.000000 -127.000000 10.334151 202 204 204
174.000000 -127.000000 10.384317 204 201 206
175.000000 -127.000000 10.434483 207 205 209
176.000000 -127.000000 10.434483 206 207 210
177.000000 -127.000000 10.484649 204 208 211
178.000000 -127.000000 10.484649 204 208 209
179.000000 -127.000000 10.584980 206 211 212
180.000000 -127.000000 10.685312 203 207 208
181.000000 -127.000000 10.685312 208 212 213
182.000000 -127.000000 10.685312 208 212 213
183.000000 -127.000000 10.835810 208 212 213
184.000000 -127.000000 10.936141 212 214 216
185.000000 -127.000000 10.936141 212 216 217
186.000000 -127.000000 10.835810 207 213 214
187.000000 -127.000000 10.785644 210 215 216
188.000000 -127.000000 10.735477 214 219 220
189.000000 -127.000000 10.735477 220 221 223
193.000000 -127.000000 11.036472 224 227 228
194.000000 -127.000000 11.136804 222 225 227
195.000000 -127.000000 11.136804 222 226 225
196.000000 -127.000000 11.036472 223 227 226
198.000000 -127.000000 11.036472 223 228 227
199.000000 -127.000000 11.136804 223 229 228
200.000000 -127.000000 11.136804 224 228 227
207.000000 -127.000000 21.521122 225 229 230
208.000000 -127.000000 21.521122 230 234 235
209.000000 -127.000000 21.521122 229 233 234
210.000000 -127.000000 21.521122 230 234 235
211.000000 -127.000000 21.521122 225 231 232
212.000000 -127.000000 21.621452 228 236 236
213.000000 -127.000000 21.621452 229 239 239
214.000000 -127.000000 21.671619 229 236 237
215.000000 -127.000000 21.671619 227 233 234
216.000000 -127.000000 21.721785 231 235 236
217.000000 -127.000000 21.771950 234 238 239
218.000000 -127.000000 21.822115 232 237 238
219.000000 -127.000000 21.872282 229 235 238
220.000000 -127.000000 22.323774 231 237 240
221.000000 -127.000000 24.832064 234 241 243
222.000000 -127.000000 24.832064 229 235 238
223.000000 -127.000000 24.832064 230 236 238
224.000000 -127.000000 24.932394 234 239 240
226.000000 -127.000000 30.450630 231 235 236
227.000000 -127.000000 30.450630 233 237 238
228.000000 -127.000000 30.400465 232 236 237
229.000000 -127.000000 30.400465 230 234 235
230.000000 -127.000000 30.500797 234 238 239
231.000000 -127.000000 30.500797 234 238 239
232.000000 -127.000000 30.500797 231 235 236
233.000000 -127.000000 30.500797 234 238 239
234.000000 -127.000000 30.500797 231 235 234
235.000000 -127.000000 30.500797 229 235 234
236.000000 -127.000000 30.500797 43 51 49
237.000000 -127.000000 30.500797 88 96 76
238.000000 -127.000000 30.500797 133 128 70
239.000000 -127.000000 30.500797 153 140 44
240.000000 -127.000000 30.550962 156 142 34
241.000000 -127.000000 30.601128 162 144 32
242.000000 -127.000000 31.002455 161 145 30
243.000000 -127.000000 31.604445 163 147 31
244.000000 -127.000000 31.905437 169 154 36
245.000000 -127.000000 32.055935 173 158 40
246.000000 -127.000000 32.106102 186 168 47
247.000000 -127.000000 32.156269 190 170 51
248.000000 -127.000000 32.156269 170 154 26
249.000000 -127.000000 32.206432 154 134 12
250.000000 -127.000000 32.256599 169 148 31
251.000000 -127.000000 32.306767 149 135 22
252.000000 -127.000000 32.306767 169 161 75
253.000000 -127.000000 32.407097 140 139 93
254.000000 -127.000000 32.457260 102 108 100
255.000000 -127.000000 32.507427 91 104 120
256.000000 -127.000000 32.457260 97 113 132
257.000000 -127.000000 32.407097 97 112 131
258.000000 -127.000000 32.306767 94 110 134
259.000000 -127.000000 32.306767 98 115 143
260.000000 -127.000000 32.256599 92 115 143
261.000000 -127.000000 32.256599 99 120 149
262.000000 -127.000000 32.206432 115 126 137
263.000000 -127.000000 32.156269 177 171 110
264.000000 -127.000000 32.156269 225 212 100
265.000000 -127.000000 32.106102 230 210 95
266.000000 -127.000000 32.106102 242 216 91
267.000000 -127.000000 32.055935 239 212 91
268.000000 -127.000000 31.905437 242 215 94
269.000000 -127.000000 31.805107 243 216 101
270.000000 -127.000000 31.554277 189 172 117
271.000000 -127.000000 31.353615 120 123 139
272.000000 -127.000000 31.253283 114 126 153
273.000000 -127.000000 31.102785 122 128 156
274.000000 -127.000000 31.002455 121 125 128
275.000000 -127.000000 30.751625 196 195 187
276.000000 -127.000000 30.701460 243 244 239
277.000000 -127.000000 30.550962 241 244 243
278.000000 -127.000000 30.500797 245 245 247
279.000000 -127.000000 30.450630 243 245 245
280.000000 -127.000000 30.450630 245 247 247
281.000000 -127.000000 30.450630 244 248 247
293.000000 -127.000000 20.919132 242 246 246
294.000000 -127.000000 21.169960 246 250 250
295.000000 -127.000000 21.220127 243 247 248
296.000000 -127.000000 21.270292 244 248 249
297.000000 -127.000000 21.270292 246 249 251
298.000000 -127.000000 21.270292 243 245 247
299.000000 -127.000000 21.270292 245 247 249
300.000000 -127.000000 21.220127 243 243 247
301.000000 -127.000000 21.169960 240 242 246
302.000000 -127.000000 21.069630 238 240 242
303.000000 -127.000000 21.019463 237 241 242
304.000000 -127.000000 20.969297 231 235 236
305.000000 -127.000000 20.969297 235 239 238
306.000000 -127.000000 20.969297 232 236 236
307.000000 -127.000000 20.969297 235 237 239
308.000000 -127.000000 20.969297 232 233 237
309.000000 -127.000000 20.969297 234 233 239
310.000000 -127.000000 20.969297 233 232 239
311.000000 -127.000000 46.553848 233 232 239
312.000000 -127.000000 46.553848 237 236 243
313.000000 -127.000000 46.553848 229 231 236
314.000000 -127.000000 46.553848 232 236 239
315.000000 -127.000000 46.604012 228 233 236
316.000000 -127.000000 46.704346 234 238 239
317.000000 -127.000000 46.905006 229 231 235
318.000000 -127.000000 46.955173 232 234 238
319.000000 -127.000000 47.105671 231 233 239
320.000000 -127.000000 47.155838 233 235 241
321.000000 -127.000000 47.206001 237 236 243
322.000000 -127.000000 47.356499 229 231 237
323.000000 -127.000000 47.456833 232 234 240
324.000000 -127.000000 47.557163 227 233 238
325.000000 -127.000000 47.557163 227 236 238
326.000000 -127.000000 47.607330 227 236 238
327.000000 -127.000000 -0.802653 226 232 235
328.000000 -127.000000 -0.802653 230 235 238
329.000000 -127.000000 -0.802653 230 232 238
330.000000 -127.000000 -0.802653 234 232 239
331.000000 -127.000000 -0.802653 237 234 241
332.000000 -127.000000 -0.802653 234 233 240
333.000000 -127.000000 0.100332 235 234 241
334.000000 -127.000000 0.100332 237 239 245
335.000000 -127.000000 0.150497 233 235 241
336.000000 -127.000000 0.200663 233 236 242
337.000000 -127.000000 0.200663 232 236 240
338.000000 -127.000000 0.200663 230 234 237
339.000000 -127.000000 0.200663 235 239 242
340.000000 -127.000000 0.200663 233 236 241
341.000000 -127.000000 0.200663 237 240 246
342.000000 -127.000000 0.150497 232 235 242
343.000000 -127.000000 0.150497 232 235 241
344.000000 -127.000000 0.100332 233 236 243
345.000000 -127.000000 0.100332 235 238 245
346.000000 -127.000000 0.100332 235 238 245
347.000000 -127.000000 0.100332 234 237 244
348.000000 -127.000000 0.050166 238 238 244
374.000000 -127.000000 21.019463 236 240 243
375.000000 -127.000000 21.019463 244 246 250
376.000000 -127.000000 21.069630 243 243 247
377.000000 -127.000000 21.019463 238 238 240
378.000000 -127.000000 20.919132 236 238 240
379.000000 -127.000000 20.868965 236 240 241
380.000000 -127.000000 20.818800 233 239 238
381.000000 -127.000000 20.818800 237 241 241
382.000000 -127.000000 20.818800 234 238 239
383.000000 -127.000000 20.818800 246 249 250
384.000000 -127.000000 20.768635 118 110 109
385.000000 -127.000000 20.768635 85 64 60
386.000000 -127.000000 20.768635 113 72 61
387.000000 -127.000000 20.768635 117 70 55
388.000000 -127.000000 20.718468 122 78 58
389.000000 -127.000000 20.718468 119 83 61
390.000000 -127.000000 20.668303 112 75 60
391.000000 -127.000000 20.618137 121 81 64
392.000000 -127.000000 20.467640 118 76 56
393.000000 -127.000000 20.367308 115 69 45
394.000000 -127.000000 20.266977 121 72 48
395.000000 -127.000000 20.266977 118 68 42
396.000000 -127.000000 20.317142 125 74 48
397.000000 -127.000000 20.317142 126 73 45
398.000000 -127.000000 20.266977 123 71 43
399.000000 -127.000000 20.216810 119 70 41
400.000000 -127.000000 20.166645 115 64 36
401.000000 -127.000000 20.116480 120 68 40
402.000000 -127.000000 20.116480 127 68 40
403.000000 -127.000000 20.116480 126 66 38
404.000000 -127.000000 20.166645 124 69 37
405.000000 -127.000000 20.216810 123 70 36
406.000000 -127.000000 20.216810 120 69 34
407.000000 -127.000000 20.266977 115 64 27
408.000000 -127.000000 20.266977 123 72 35
409.000000 -127.000000 20.317142 118 65 30
410.000000 -127.000000 20.367308 120 67 36
411.000000 -127.000000 20.417475 105 55 31
412.000000 -127.000000 20.618137 68 23 4
413.000000 -127.000000 20.718468 55 21 3
414.000000 -127.000000 20.768635 41 12 0
415.000000 -127.000000 20.818800 43 18 0
416.000000 -127.000000 20.868965 41 19 0
417.000000 -127.000000 20.868965 36 16 0
418.000000 -127.000000 20.868965 46 27 6
419.000000 -127.000000 0.000000 41 20 0
420.000000 -127.000000 0.000000 49 29 7
421.000000 -127.000000 0.000000 50 31 12
422.000000 -127.000000 0.000000 52 33 18
423.000000 -127.000000 0.000000 47 28 17
424.000000 -127.000000 0.000000 0 0 0
61.000000 -128.000000 21.621452 30 0 0
62.000000 -128.000000 21.671619 30 0 0
63.000000 -128.000000 21.671619 29 0 0
64.000000 -128.000000 21.671619 29 0 0
65.000000 -128.000000 21.671619 28 0 0
66.000000 -128.000000 21.671619 28 0 0
67.000000 -128.000000 21.671619 26 0 0
68.000000 -128.000000 21.671619 27 0 0
69.000000 -128.000000 21.721785 27 0 0
70.000000 -128.000000 21.721785 29 0 0
71.000000 -128.000000 21.671619 30 0 0
72.000000 -128.000000 21.671619 39 2 0
73.000000 -128.000000 21.621452 43 4 0
74.000000 -128.000000 21.621452 48 10 0
75.000000 -128.000000 21.621452 47 12 0
76.000000 -128.000000 21.671619 47 12 0
77.000000 -128.000000 21.671619 48 11 0
78.000000 -128.000000 21.671619 52 15 0
79.000000 -128.000000 21.571287 52 13 0
80.000000 -128.000000 21.571287 40 3 0
81.000000 -128.000000 21.571287 38 4 0
82.000000 -128.000000 21.621452 30 1 0
83.000000 -128.000000 21.671619 28 0 0
84.000000 -128.000000 21.671619 39 5 0
85.000000 -128.000000 21.671619 53 14 0
86.000000 -128.000000 21.671619 53 11 0
87.000000 -128.000000 21.671619 62 19 0
88.000000 -128.000000 21.671619 56 15 0
89.000000 -128.000000 21.721785 52 11 0
90.000000 -128.000000 21.771950 58 16 0
91.000000 -128.000000 21.771950 60 17 0
92.000000 -128.000000 21.771950 51 10 0
93.000000 -128.000000 21.771950 50 12 0
94.000000 -128.000000 21.721785 52 17 0
95.000000 -128.000000 21.721785 46 14 0
96.000000 -128.000000 21.721785 45 13 0
97.000000 -128.000000 21.721785 49 16 0
98.000000 -128.000000 21.721785 53 18 0
99.000000 -128.000000 21.721785 47 11 0
100.000000 -128.000000 21.671619 44 11 0
101.000000 -128.000000 21.671619 49 20 0
102.000000 -128.000000 21.671619 43 14 0
103.000000 -128.000000 21.621452 36 8 0
104.000000 -128.000000 21.571287 40 12 0
105.000000 -128.000000 21.521122 38 10 0
106.000000 -128.000000 21.571287 39 13 0
107.000000 -128.000000 21.521122 39 14 0
108.000000 -128.000000 21.521122 38 17 0
109.000000 -128.000000 21.521122 29 12 0
110.000000 -128.000000 21.621452 29 15 0
111.000000 -128.000000 21.621452 25 14 0
112.000000 -128.000000 21.621452 24 16 0
113.000000 -128.000000 21.621452 21 13 0
114.000000 -128.000000 21.621452 33 23 9
115.000000 -128.000000 21.671619 35 27 17
116.000000 -128.000000 21.671619 132 130 118
117.000000 -128.000000 21.621452 131 129 120
118.000000 -128.000000 21.621452 131 130 123
119.000000 -128.000000 21.621452 130 131 124
120.000000 -128.000000 21.571287 128 131 124
130.000000 -128.000000 7.474702 131 135 134
131.000000 -128.000000 12.792274 134 138 135
132.000000 -128.000000 12.842441 137 140 137
133.000000 -128.000000 12.842441 135 138 133
134.000000 -128.000000 12.842441 133 136 131
135.000000 -128.000000 12.892607 132 135 129
136.000000 -128.000000 12.892607 139 142 135
137.000000 -128.000000 12.942772 139 142 135
138.000000 -128.000000 12.942772 138 141 136
142.000000 -128.000000 16.103216 134 141 132
143.000000 -128.000000 16.103216 131 136 128
144.000000 -128.000000 16.103216 136 138 137
146.000000 -128.000000 17.357361 138 142 141
147.000000 -128.000000 17.608191 133 140 135
148.000000 -128.000000 17.758688 133 141 135
149.000000 -128.000000 17.909185 131 140 131
150.000000 -128.000000 18.009516 133 142 130
151.000000 -128.000000 18.210180 134 143 131
152.000000 -128.000000 18.210180 138 147 137
153.000000 -128.000000 18.210180 131 141 131
154.000000 -128.000000 18.260345 141 149 141
155.000000 -128.000000 18.461008 138 145 140
156.000000 -128.000000 18.611506 144 149 145
157.000000 -128.000000 18.762003 141 145 144
158.000000 -128.000000 18.862335 141 146 145
159.000000 -128.000000 19.263660 146 152 151
160.000000 -128.000000 19.313828 147 151 150
161.000000 -128.000000 19.514490 153 156 155
162.000000 -128.000000 19.715153 157 159 159
163.000000 -128.000000 19.765318 168 170 170
164.000000 -128.000000 19.715153 166 170 169
165.000000 -128.000000 19.715153 173 177 176
166.000000 -128.000000 19.614820 182 188 187
167.000000 -128.000000 19.614820 182 188 187
168.000000 -128.000000 19.765318 190 196 195
169.000000 -128.000000 19.765318 193 197 196
171.000000 -128.000000 10.384317 194 198 197
172.000000 -128.000000 10.384317 199 203 202
173.000000 -128.000000 10.384317 197 201 200
174.000000 -128.000000 10.434483 198 201 207
175.000000 -128.000000 10.434483 196 199 205
176.000000 -128.000000 10.484649 200 203 207
177.000000 -128.000000 10.635146 206 210 213
178.000000 -128.000000 10.635146 205 209 210
179.000000 -128.000000 10.785644 208 212 213
180.000000 -128.000000 10.785644 205 209 210
181.000000 -128.000000 10.685312 203 207 208
182.000000 -128.000000 10.735477 205 209 210
183.000000 -128.000000 10.785644 214 218 219
184.000000 -128.000000 10.936141 213 215 217
185.000000 -128.000000 10.936141 216 220 221
186.000000 -128.000000 10.835810 215 222 223
187.000000 -128.000000 10.735477 212 220 220
188.000000 -128.000000 10.534815 215 219 220
207.000000 -128.000000 21.470955 226 230 231
208.000000 -128.000000 21.521122 232 236 237
209.000000 -128.000000 21.521122 231 235 236
210.000000 -128.000000 21.470955 228 232 233
211.000000 -128.000000 21.470955 227 231 232
212.000000 -128.000000 21.571287 228 234 235
213.000000 -128.000000 21.621452 227 233 234
214.000000 -128.000000 21.671619 233 238 239
215.000000 -128.000000 21.671619 234 238 239
216.000000 -128.000000 21.721785 231 235 236
217.000000 -128.000000 21.721785 235 239 240
218.000000 -128.000000 21.771950 234 238 239
219.000000 -128.000000 21.822115 232 238 241
220.000000 -128.000000 22.323774 231 237 240
221.000000 -128.000000 24.832064 230 236 241
222.000000 -128.000000 24.882229 230 236 241
223.000000 -128.000000 24.932394 234 240 243
224.000000 -128.000000 24.932394 239 243 246
225.000000 -128.000000 30.450630 234 238 239
226.000000 -128.000000 30.500797 234 238 239
227.000000 -128.000000 30.450630 230 234 235
228.000000 -128.000000 30.450630 233 237 238
229.000000 -128.000000 30.450630 229 233 234
230.000000 -128.000000 30.500797 233 237 238
231.000000 -128.000000 30.500797 236 240 241
232.000000 -128.000000 30.500797 229 233 234
233.000000 -128.000000 30.500797 229 233 234
234.000000 -128.000000 30.500797 234 238 238
235.000000 -128.000000 30.500797 233 239 238
236.000000 -128.000000 30.500797 44 52 50
237.000000 -128.000000 30.500797 81 90 79
238.000000 -128.000000 30.500797 103 100 55
239.000000 -128.000000 30.550962 141 131 28
240.000000 -128.000000 30.601128 152 141 27
241.000000 -128.000000 30.651295 152 140 23
242.000000 -128.000000 31.102785 162 147 32
243.000000 -128.000000 31.654610 156 141 27
244.000000 -128.000000 31.955605 159 146 29
245.000000 -128.000000 32.106102 164 149 31
246.000000 -128.000000 32.156269 173 156 37
247.000000 -128.000000 32.206432 184 164 47
248.000000 -128.000000 32.256599 192 175 54
249.000000 -128.000000 32.256599 209 192 77
250.000000 -128.000000 32.306767 208 193 79
251.000000 -128.000000 32.356930 182 176 76
252.000000 -128.000000 32.407097 123 127 67
253.000000 -128.000000 32.507427 83 88 79
254.000000 -128.000000 32.657925 98 107 123
255.000000 -128.000000 32.657925 91 103 121
256.000000 -128.000000 32.607758 94 109 124
257.000000 -128.000000 32.457260 98 110 135
258.000000 -128.000000 32.407097 97 111 134
259.000000 -128.000000 32.306767 96 112 140
260.000000 -128.000000 32.256599 95 116 142
261.000000 -128.000000 32.256599 97 118 146
262.000000 -128.000000 32.206432 104 118 138
263.000000 -128.000000 32.206432 152 150 100
264.000000 -128.000000 32.156269 209 200 88
265.000000 -128.000000 32.106102 229 209 87
266.000000 -128.000000 32.106102 231 206 78
267.000000 -128.000000 32.106102 231 204 80
268.000000 -128.000000 32.005772 236 211 89
269.000000 -128.000000 31.855272 243 218 110
270.000000 -128.000000 31.604445 184 165 112
271.000000 -128.000000 31.453947 127 126 146
272.000000 -128.000000 31.303450 118 125 155
273.000000 -128.000000 31.152952 124 126 159
274.000000 -128.000000 31.002455 126 129 136
275.000000 -128.000000 30.801790 192 191 187
276.000000 -128.000000 30.701460 231 231 229
277.000000 -128.000000 30.601128 238 242 240
278.000000 -128.000000 30.500797 243 243 243
279.000000 -128.000000 30.450630 243 245 245
280.000000 -128.000000 30.450630 245 247 247
281.000000 -128.000000 30.450630 245 249 248
293.000000 -128.000000 20.919132 244 249 248
294.000000 -128.000000 21.119795 246 251 249
295.000000 -128.000000 21.220127 245 249 250
296.000000 -128.000000 21.270292 246 250 251
297.000000 -128.000000 21.270292 245 247 249
298.000000 -128.000000 21.370625 244 245 248
299.000000 -128.000000 21.521122 241 242 245
300.000000 -128.000000 21.621452 248 246 250
301.000000 -128.000000 21.621452 244 244 248
302.000000 -128.000000 21.470955 238 240 242
303.000000 -128.000000 21.320457 235 237 239
304.000000 -128.000000 21.220127 234 238 239
305.000000 -128.000000 21.220127 232 237 236
306.000000 -128.000000 21.220127 232 238 237
307.000000 -128.000000 21.220127 227 231 232
308.000000 -128.000000 21.420790 232 233 237
309.000000 -128.000000 21.420790 233 233 239
310.000000 -128.000000 21.420790 234 234 240
311.000000 -128.000000 23.276924 234 232 239
312.000000 -128.000000 46.503681 231 230 237
313.000000 -128.000000 46.553848 233 235 240
314.000000 -128.000000 46.553848 230 233 237
315.000000 -128.000000 46.654179 227 231 235
316.000000 -128.000000 46.654179 231 235 235
317.000000 -128.000000 46.754509 230 233 235
318.000000 -128.000000 46.905006 233 234 237
319.000000 -128.000000 47.055504 232 232 238
320.000000 -128.000000 46.905006 233 232 240
323.000000 -128.000000 47.456833 235 234 241
324.000000 -128.000000 47.506996 236 235 242
325.000000 -128.000000 47.557163 236 236 242
326.000000 -128.000000 -0.802653 231 232 237
327.000000 -128.000000 -0.802653 232 233 236
328.000000 -128.000000 -0.802653 231 234 237
329.000000 -128.000000 -0.802653 232 235 241
330.000000 -128.000000 -0.802653 234 235 242
331.000000 -128.000000 -0.802653 236 236 243
332.000000 -128.000000 -0.802653 237 234 241
333.000000 -128.000000 -0.050166 232 234 240
334.000000 -128.000000 0.100332 235 237 244
335.000000 -128.000000 0.100332 229 234 240
336.000000 -128.000000 0.200663 231 234 240
337.000000 -128.000000 0.200663 234 238 239
338.000000 -128.000000 0.250829 232 236 238
339.000000 -128.000000 0.250829 231 235 238
340.000000 -128.000000 0.200663 233 237 241
341.000000 -128.000000 0.200663 230 233 240
342.000000 -128.000000 0.200663 230 233 240
343.000000 -128.000000 0.150497 231 236 242
344.000000 -128.000000 0.150497 233 236 242
345.000000 -128.000000 0.100332 231 234 240
346.000000 -128.000000 0.100332 236 238 244
347.000000 -128.000000 0.100332 231 234 239
348.000000 -128.000000 0.050166 234 235 242
374.000000 -128.000000 21.169960 236 241 243
375.000000 -128.000000 21.169960 240 241 243
376.000000 -128.000000 21.169960 243 243 245
377.000000 -128.000000 21.069630 241 241 243
378.000000 -128.000000 20.969297 244 244 246
379.000000 -128.000000 20.868965 239 240 241
380.000000 -128.000000 20.818800 241 243 245
381.000000 -128.000000 20.818800 237 238 239
382.000000 -128.000000 20.818800 234 237 239
383.000000 -128.000000 20.818800 247 249 249
384.000000 -128.000000 20.818800 106 99 96
385.000000 -128.000000 20.768635 87 64 55
386.000000 -128.000000 20.768635 114 72 62
387.000000 -128.000000 20.768635 120 79 61
388.000000 -128.000000 20.718468 120 82 57
389.000000 -128.000000 20.668303 113 77 49
390.000000 -128.000000 20.618137 113 76 51
391.000000 -128.000000 20.517805 117 75 48
392.000000 -128.000000 20.367308 114 71 44
393.000000 -128.000000 20.317142 120 77 49
394.000000 -128.000000 20.216810 118 71 44
395.000000 -128.000000 20.216810 122 75 48
396.000000 -128.000000 20.266977 121 72 44
397.000000 -128.000000 20.266977 120 68 38
398.000000 -128.000000 20.216810 126 74 44
399.000000 -128.000000 20.166645 124 74 43
400.000000 -128.000000 20.166645 123 73 40
401.000000 -128.000000 20.116480 118 67 32
402.000000 -128.000000 20.116480 122 70 32
403.000000 -128.000000 20.116480 124 69 32
404.000000 -128.000000 20.116480 130 69 34
405.000000 -128.000000 20.166645 135 70 36
406.000000 -128.000000 20.216810 132 66 35
407.000000 -128.000000 20.216810 129 63 32
408.000000 -128.000000 20.266977 129 63 30
409.000000 -128.000000 20.317142 129 69 33
410.000000 -128.000000 20.367308 121 63 29
411.000000 -128.000000 20.567972 96 50 22
412.000000 -128.000000 20.718468 59 26 2
413.000000 -128.000000 20.768635 45 17 0
414.000000 -128.000000 20.768635 38 15 0
415.000000 -128.000000 20.818800 37 18 0
416.000000 -128.000000 20.868965 36 18 0
417.000000 -128.000000 20.919132 38 20 0
418.000000 -128.000000 20.919132 41 21 1
419.000000 -128.000000 0.000000 40 20 1
420.000000 -128.000000 0.000000 49 27 8
421.000000 -128.000000 0.000000 44 24 7
422.000000 -128.000000 0.000000 42 27 11
423.000000 -128.000000 0.000000 39 27 12
424.000000 -128.000000 0.000000 0 0 0
61.000000 -129.000000 21.671619 29 0 0
62.000000 -129.000000 21.721785 30 0 0
63.000000 -129.000000 21.721785 31 0 0
64.000000 -129.000000 21.671619 28 0 0
65.000000 -129.000000 21.671619 30 0 0
66.000000 -129.000000 21.671619 29 0 0
67.000000 -129.000000 21.671619 26 0 0
68.000000 -129.000000 21.671619 23 0 0
69.000000 -129.000000 21.721785 24 0 0
70.000000 -129.000000 21.721785 27 0 0
71.000000 -129.000000 21.671619 30 0 0
72.000000 -129.000000 21.671619 33 0 0
73.000000 -129.000000 21.621452 42 3 0
74.000000 -129.000000 21.621452 49 9 0
75.000000 -129.000000 21.621452 45 5 0
76.000000 -129.000000 21.621452 48 8 0
77.000000 -129.000000 21.671619 57 18 0
78.000000 -129.000000 21.621452 51 13 0
79.000000 -129.000000 21.571287 48 12 0
80.000000 -129.000000 21.571287 32 6 0
81.000000 -129.000000 21.571287 28 5 0
82.000000 -129.000000 21.621452 25 2 0
83.000000 -129.000000 21.671619 24 0 0
84.000000 -129.000000 21.671619 37 8 0
85.000000 -129.000000 21.671619 49 12 0
86.000000 -129.000000 21.671619 57 16 0
87.000000 -129.000000 21.671619 59 16 0
88.000000 -129.000000 21.671619 58 14 0
89.000000 -129.000000 21.771950 54 10 0
90.000000 -129.000000 21.771950 54 11 0
91.000000 -129.000000 21.872282 55 13 0
92.000000 -129.000000 21.872282 53 12 0
93.000000 -129.000000 21.872282 48 11 0
94.000000 -129.000000 21.872282 41 10 0
95.000000 -129.000000 21.872282 42 14 0
96.000000 -129.000000 21.872282 38 9 0
97.000000 -129.000000 21.822115 46 16 0
98.000000 -129.000000 21.822115 46 15 0
99.000000 -129.000000 21.822115 46 14 0
100.000000 -129.000000 21.771950 39 6 0
101.000000 -129.000000 21.721785 42 14 0
102.000000 -129.000000 21.671619 37 9 0
103.000000 -129.000000 21.671619 34 6 0
104.000000 -129.000000 21.671619 42 14 0
105.000000 -129.000000 21.571287 44 16 0
106.000000 -129.000000 21.571287 34 8 0
107.000000 -129.000000 21.571287 30 5 0
108.000000 -129.000000 21.571287 28 7 0
109.000000 -129.000000 21.621452 25 8 0
110.000000 -129.000000 21.621452 20 8 0
111.000000 -129.000000 21.621452 23 12 0
112.000000 -129.000000 21.621452 21 11 0
113.000000 -129.000000 21.671619 24 14 0
114.000000 -129.000000 21.671619 25 16 1
115.000000 -129.000000 21.671619 30 26 13
116.000000 -129.000000 21.671619 123 121 111
117.000000 -129.000000 21.671619 126 127 118
118.000000 -129.000000 21.621452 132 133 125
119.000000 -129.000000 21.621452 133 136 128
120.000000 -129.000000 21.621452 128 131 123
129.000000 -129.000000 7.474702 127 134 130
130.000000 -129.000000 7.976359 125 132 128
131.000000 -129.000000 8.227188 129 136 132
132.000000 -129.000000 12.792274 127 134 130
133.000000 -129.000000 12.842441 130 138 133
134.000000 -129.000000 12.842441 124 132 126
135.000000 -129.000000 12.892607 129 136 130
136.000000 -129.000000 12.942772 137 141 136
137.000000 -129.000000 13.043104 137 140 137
138.000000 -129.000000 12.992938 135 138 133
146.000000 -129.000000 17.558023 135 142 138
147.000000 -129.000000 17.708521 134 142 136
148.000000 -129.000000 17.808853 132 143 134
149.000000 -129.000000 18.009516 138 147 137
150.000000 -129.000000 18.210180 134 143 131
151.000000 -129.000000 18.260345 132 141 129
152.000000 -129.000000 18.360678 136 145 134
153.000000 -129.000000 18.360678 140 145 137
154.000000 -129.000000 18.410843 145 150 142
155.000000 -129.000000 18.511173 144 147 142
156.000000 -129.000000 18.661671 145 148 145
157.000000 -129.000000 18.812168 147 150 148
158.000000 -129.000000 18.962666 143 146 146
159.000000 -129.000000 19.263660 143 147 146
160.000000 -129.000000 19.414158 148 154 153
161.000000 -129.000000 19.514490 154 159 158
162.000000 -129.000000 19.715153 159 163 162
163.000000 -129.000000 19.815485 165 167 167
164.000000 -129.000000 19.815485 171 173 173
165.000000 -129.000000 19.815485 178 178 178
166.000000 -129.000000 19.614820 188 188 188
167.000000 -129.000000 19.614820 194 194 194
168.000000 -129.000000 19.765318 196 196 196
169.000000 -129.000000 19.614820 188 192 191
170.000000 -129.000000 10.334151 192 196 195
171.000000 -129.000000 10.384317 198 202 203
172.000000 -129.000000 10.384317 199 203 204
173.000000 -129.000000 10.384317 197 201 202
174.000000 -129.000000 10.434483 196 200 201
175.000000 -129.000000 10.434483 195 199 200
176.000000 -129.000000 10.484649 207 208 210
177.000000 -129.000000 10.584980 202 202 204
178.000000 -129.000000 10.635146 209 206 209
179.000000 -129.000000 10.685312 206 207 208
180.000000 -129.000000 10.735477 210 212 212
181.000000 -129.000000 10.685312 210 212 212
182.000000 -129.000000 10.685312 211 215 214
183.000000 -129.000000 10.735477 210 214 213
184.000000 -129.000000 10.885975 216 218 218
185.000000 -129.000000 10.735477 213 217 218
186.000000 -129.000000 10.635146 213 219 220
187.000000 -129.000000 10.584980 218 224 226
188.000000 -129.000000 10.484649 219 223 226
208.000000 -129.000000 21.521122 227 231 232
209.000000 -129.000000 21.521122 233 237 238
210.000000 -129.000000 21.470955 234 238 239
211.000000 -129.000000 21.470955 233 237 238
212.000000 -129.000000 21.571287 235 239 240
213.000000 -129.000000 21.621452 227 231 232
214.000000 -129.000000 21.671619 232 236 237
215.000000 -129.000000 21.671619 230 234 235
216.000000 -129.000000 21.721785 233 237 238
217.000000 -129.000000 21.721785 232 236 237
218.000000 -129.000000 21.771950 229 235 236
219.000000 -129.000000 21.822115 230 237 237
220.000000 -129.000000 24.832064 230 238 238
221.000000 -129.000000 24.882229 229 237 239
222.000000 -129.000000 24.882229 230 236 239
223.000000 -129.000000 24.932394 233 239 240
224.000000 -129.000000 24.932394 233 235 237
225.000000 -129.000000 30.450630 236 236 238
226.000000 -129.000000 30.450630 228 228 230
227.000000 -129.000000 30.450630 239 241 243
228.000000 -129.000000 30.450630 233 237 238
229.000000 -129.000000 30.450630 233 237 238
230.000000 -129.000000 30.500797 232 234 236
231.000000 -129.000000 30.500797 230 232 234
232.000000 -129.000000 30.500797 227 231 230
233.000000 -129.000000 30.500797 231 233 233
234.000000 -129.000000 30.500797 233 239 238
235.000000 -129.000000 30.500797 237 244 243
236.000000 -129.000000 30.500797 35 46 44
237.000000 -129.000000 30.500797 76 87 83
238.000000 -129.000000 30.550962 86 90 59
239.000000 -129.000000 30.550962 148 146 58
240.000000 -129.000000 30.601128 156 148 41
241.000000 -129.000000 30.701460 158 149 37
242.000000 -129.000000 31.203117 170 159 44
243.000000 -129.000000 31.805107 170 155 41
244.000000 -129.000000 32.055935 163 148 31
245.000000 -129.000000 32.156269 166 149 31
246.000000 -129.000000 32.206432 155 140 22
247.000000 -129.000000 32.306767 155 140 22
248.000000 -129.000000 32.306767 176 161 50
249.000000 -129.000000 32.356930 179 164 53
250.000000 -129.000000 32.356930 180 172 73
251.000000 -129.000000 32.457260 124 125 87
252.000000 -129.000000 32.507427 77 82 95
253.000000 -129.000000 32.657925 89 99 117
254.000000 -129.000000 32.758255 92 104 127
255.000000 -129.000000 32.758255 89 101 126
256.000000 -129.000000 32.708092 97 112 133
257.000000 -129.000000 32.457260 94 108 135
258.000000 -129.000000 32.407097 98 109 137
259.000000 -129.000000 32.306767 97 111 140
260.000000 -129.000000 32.256599 97 111 142
261.000000 -129.000000 32.256599 103 114 144
262.000000 -129.000000 32.206432 107 118 141
263.000000 -129.000000 32.206432 127 128 116
